# .PCD v0.7 - Point Cloud Data file format
VERSION 0.7
FIELDS x y z rgba
SIZE 4 4 4 4
TYPE F F F U
COUNT 1 1 1 1
WIDTH 522
HEIGHT 1
VIEWPOINT 0 0 0 1 0 0 0
POINTS 522
DATA ascii
-0.19331786 0.13881093 0.82900006 4284038951
-0.18532351 0.1380842 0.82900017 4284038694
-0.17514887 0.1380842 0.82900017 4283842081
-0.16448796 0.13856891 0.82847393 4283907360
-0.15467514 0.13869816 0.82833344 4283644705
-0.14473782 0.13863675 0.82840025 4283579942
-0.13459584 0.1374092 0.82850027 4283644964
-0.12511314 0.13726246 0.82762516 4283841574
-0.11540262 0.13717501 0.82791436 4283841567
-0.10520522 0.13736069 0.82796973 4283514407
-0.094879568 0.13693069 0.827865 4283579941
-0.084880032 0.13638289 0.82752389 4283711013
-0.074921362 0.1366182 0.8272565 4283448867
-0.066676833 0.13817871 0.82829428 4282922271
-0.19500516 0.14441419 0.82729155 4286278481
-0.18493219 0.14431663 0.82724482 4285357634
-0.17490752 0.14433114 0.82610655 4285422918
-0.16559783 0.14522025 0.82543164 4285620553
-0.15540847 0.14546336 0.82500029 4285554766
-0.14534535 0.14534502 0.82483715 4285751374
-0.13523519 0.14535928 0.82491881 4285423177
-0.12499902 0.14522977 0.824184 4285554508
-0.11513599 0.14502943 0.82465249 4285555019
-0.10466154 0.14506018 0.82482642 4285620817
-0.09459725 0.14514431 0.82369417 4285292364
-0.084444672 0.14507309 0.82328612 4285291594
-0.074390113 0.14517395 0.82385743 4285029451
-0.064641811 0.14496739 0.82670724 4282791465
-0.19439265 0.15180098 0.82770002 4289962372
-0.18502542 0.15164946 0.82766658 4287266155
-0.17541207 0.15201963 0.8278237 4287331436
-0.16482744 0.1532111 0.82826346 4287990914
-0.1548751 0.15309682 0.82800013 4287793521
-0.14473784 0.15330887 0.82840002 4288319873
-0.13482559 0.15322395 0.82833344 4288255354
-0.12503231 0.15297957 0.82742107 4288319615
-0.11507598 0.1528305 0.82816666 4287531387
-0.10562646 0.15281506 0.82808328 4287729282
-0.095223077 0.15376051 0.82774085 4288912525
-0.084864393 0.15304898 0.82738101 4288846723
-0.075090744 0.15344892 0.82758349 4288780676
-0.064731397 0.15134741 0.82850021 4285688930
-0.090469643 0.11989066 0.83900005 4283383073
-0.084585428 0.11989067 0.83900011 4283579424
-0.077965707 0.11989066 0.83900005 4283579423
-0.19291072 0.1286549 0.83860016 4284039982
-0.18508257 0.12898128 0.83833343 4283841824
-0.17496154 0.12851943 0.83819997 4283710499
-0.16518973 0.12719643 0.83811778 4283710242
-0.15496364 0.12705296 0.83774304 4283645215
-0.14498498 0.12708801 0.83737504 4283710496
-0.13504973 0.12770854 0.8372308 4283579682
-0.12491695 0.12613086 0.83734143 4283644960
-0.115322 0.1255939 0.83720875 4283775780
-0.10494784 0.12622604 0.83714306 4283841571
-0.094564073 0.12552592 0.83673936 4283579682
-0.08501485 0.12531987 0.83600003 4283514144
-0.07544861 0.12549882 0.8365832 4283710242
-0.065898351 0.12695897 0.83741176 4282593817
-0.2012222 0.13560408 0.83466667 4291737497
-0.19520721 0.13427588 0.83465201 4285027388
-0.18506922 0.13363862 0.83459997 4283907361
-0.1751128 0.13385342 0.83437127 4283710755
-0.16499323 0.13367729 0.83354521 4283710240
-0.15507205 0.1336403 0.83276451 4283710755
-0.14499949 0.13354304 0.83188218 4283906850
-0.13533035 0.13234714 0.8324784 4283579687
-0.1247484 0.13204071 0.83214295 4283841570
-0.11446816 0.13196532 0.83166677 4283841574
-0.10488525 0.13217346 0.83166665 4283579940
-0.095610134 0.13179718 0.83111125 4283775779
-0.08529304 0.13122188 0.83157152 4283513889
-0.074596874 0.13164711 0.83182371 4283644963
-0.064428054 0.13413054 0.83271426 4282724634
-0.059151512 0.1380202 0.833 4282921499
-0.20034085 0.14060286 0.83100003 4291277715
-0.060612042 0.14167151 0.83300006 4282790426
-0.19323009 0.15708788 0.83223093 4290490253
-0.18499792 0.15710124 0.83310014 4289241475
-0.17501915 0.15700941 0.83300018 4289240969
-0.16531211 0.15745364 0.83238471 4289568395
-0.15535983 0.15754889 0.8320002 4289437578
-0.14527074 0.15768425 0.83271444 4289437319
-0.1351923 0.15784681 0.83357149 4289371779
-0.12472548 0.15754889 0.8320002 4289240963
-0.11451406 0.15754889 0.8320002 4289437315
-0.10464849 0.15761955 0.83207703 4289306502
-0.094381593 0.15820514 0.83271438 4288912773
-0.085338496 0.15754889 0.83200014 4286474847
-0.074372403 0.15783404 0.83245462 4288976510
-0.06615717 0.15601784 0.83333337 4287992189
-0.19244868 0.16117769 0.83611113 4290816911
-0.18468556 0.16163538 0.83776927 4289372540
-0.17522548 0.16155228 0.83792305 4289437579
-0.16484573 0.16117583 0.83719999 4289568134
-0.15474817 0.16134861 0.8365714 4289437837
-0.14473155 0.16130909 0.83607686 4289042811
-0.13456629 0.16183859 0.83664703 4288514936
-0.12519442 0.16201508 0.83660001 4289240197
-0.11559246 0.16161016 0.83649993 4289437574
-0.10447954 0.16118048 0.83633333 4289371776
-0.094543517 0.16123791 0.83600003 4289043078
-0.085015886 0.16123788 0.83599997 4285096797
-0.075836271 0.16181982 0.83699995 4287858809
-0.069329053 0.16144244 0.83833337 4289437063
-0.084105022 0.10941096 0.8490001 4283185954
-0.077406392 0.10941096 0.84900004 4283381795
-0.19409785 0.11856087 0.84828573 4284039983
-0.18499696 0.11812856 0.84747624 4283645987
-0.17440057 0.11761888 0.84792316 4283579680
-0.16475485 0.11744937 0.84750026 4283644704
-0.15480228 0.11766232 0.84725004 4283579424
-0.14481913 0.11733817 0.84714288 4283448094
-0.1347906 0.11670587 0.84720689 4283644448
-0.12519319 0.11591113 0.84650004 4283448095
-0.11478101 0.11536796 0.84615541 4283513632
-0.10468764 0.11488163 0.84616691 4283382563
-0.094902255 0.11491293 0.84572715 4283382048
-0.085096635 0.11490833 0.84500003 4283448100
-0.074873127 0.11489792 0.84561211 4283382048
-0.065152876 0.11650702 0.84682375 4282592793
-0.20021461 0.12280822 0.84900004 4290752377
-0.19511238 0.12421516 0.84385717 4284829495
-0.18491541 0.12408452 0.84314626 4283841825
-0.17504899 0.12332965 0.84274173 4283776032
-0.164947 0.12180714 0.84260005 4283710241
-0.1548271 0.12184273 0.84233338 4283645217
-0.14471592 0.12220757 0.84242874 4283710243
-0.1350943 0.12254255 0.84207141 4283775779
-0.12583447 0.12087269 0.84118181 4283710496
-0.11448888 0.1203871 0.84100002 4283579173
-0.10543089 0.12091374 0.8409999 4283775784
-0.096583538 0.12054509 0.84100002 4283448356
-0.072499089 0.12042221 0.84100002 4283644450
-0.063752271 0.12227437 0.84265226 4282723861
-0.064143255 0.15851495 0.84100002 4287140990
-0.19140817 0.16529803 0.84300011 4290620816
-0.18456665 0.16584475 0.84326673 4289503111
-0.1750304 0.16543151 0.84242868 4289437583
-0.16546969 0.16522704 0.84388906 4289437579
-0.15471949 0.16582501 0.84442872 4289174666
-0.1447107 0.16637759 0.8448751 4286345572
-0.13601534 0.16614139 0.84477782 4286476902
-0.12453981 0.16743857 0.84660017 4288779133
-0.11467966 0.16687323 0.84559995 4289568646
-0.10503462 0.16655062 0.84536368 4289503111
-0.09479443 0.16664082 0.84480011 4289108616
-0.085332952 0.16639028 0.8447777 4285292890
-0.073998943 0.16610466 0.84481817 4288845444
-0.065710373 0.16383517 0.84521061 4289042562
-0.12131964 0.17044292 0.84900004 4289371517
-0.10196803 0.17044292 0.84900004 4289698946
-0.096013702 0.17044292 0.8490001 4289437580
-0.19180648 0.10906643 0.85800004 4284103202
-0.18423772 0.10853673 0.85777771 4283776026
-0.17462657 0.10776449 0.85690904 4283317024
-0.16526145 0.10753603 0.85583335 4283382051
-0.15546615 0.10761378 0.85671437 4283185441
-0.14477979 0.10778346 0.85679156 4283250208
-0.13478911 0.10757384 0.85565543 4283250716
-0.12494135 0.10702771 0.85511142 4283250721
-0.11472114 0.10609458 0.85502517 4283250720
-0.10500681 0.10598827 0.85475028 4283185186
-0.094847471 0.1061139 0.85465926 4283315741
-0.084776483 0.104284 0.8548336 4283119392
-0.074970491 0.10522266 0.85456115 4283119391
-0.065909669 0.10719702 0.85584855 4282395929
-0.20036453 0.11106348 0.85600007 4291409555
-0.19473018 0.11316191 0.85355902 4284696879
-0.18484616 0.11286697 0.85300004 4283645217
-0.17566115 0.11265022 0.85236007 4283644700
-0.16476552 0.11296916 0.85143471 4283578911
-0.1549008 0.11239557 0.85271442 4283513376
-0.14554845 0.11252103 0.85259092 4283382306
-0.13556133 0.11223558 0.85137486 4283447583
-0.12458961 0.11116077 0.85099995 4283382050
-0.11712915 0.11116078 0.85100001 4283447832
-0.063472226 0.11229241 0.85181248 4282592535
-0.19121297 0.16955134 0.852 4290028167
-0.18651138 0.16935234 0.85100001 4289633669
-0.1753207 0.16935232 0.85099995 4289568653
-0.16487606 0.16935232 0.85099995 4289502863
-0.15517747 0.16935234 0.85100001 4288910469
-0.14547887 0.16935234 0.85100001 4286147680
-0.13503425 0.16935232 0.85099995 4286148193
-0.12757379 0.16935234 0.85100001 4286606960
-0.082065009 0.16935234 0.85100001 4286279005
-0.075350598 0.16935232 0.85099995 4288450680
-0.064106517 0.16829365 0.85261536 4287529586
-0.0594224 0.169241 0.85800004 4282198049
-0.19068873 0.17124595 0.85300004 4289110146
-0.18445806 0.17232226 0.85563636 4289502593
-0.17494422 0.17240956 0.85476917 4289634180
-0.16499572 0.17250003 0.85549992 4289568395
-0.15478386 0.1723101 0.85484606 4288385405
-0.14479849 0.17293186 0.85433328 4286084463
-0.13522495 0.17221664 0.85438454 4285885025
-0.12381982 0.17232974 0.85341668 4288121471
-0.1149353 0.17289829 0.85336834 4289634191
-0.10574526 0.17299208 0.8533529 4289633675
-0.094578519 0.17335133 0.85368741 4289371789
-0.084926769 0.17308526 0.85504997 4285622875
-0.074591622 0.1729878 0.85512489 4288777849
-0.066089824 0.17256318 0.85606664 4289239429
-0.085129544 0.094811484 0.86342216 4282659357
-0.20089155 0.10625684 0.86583334 4289372287
-0.19498584 0.10501897 0.86374998 4283908910
-0.18491673 0.10398926 0.86154306 4283644443
-0.17472519 0.10254579 0.86107695 4283316509
-0.1644979 0.10238924 0.8610912 4283119898
-0.15477465 0.10267846 0.86121422 4283053340
-0.14486843 0.10261323 0.86066657 4282922270
-0.13542297 0.10222626 0.86058325 4283249691
-0.12537773 0.10162194 0.86024988 4283053600
-0.11628007 0.10108535 0.85999995 4283053600
-0.10509862 0.10072579 0.86000001 4283184158
-0.095749818 0.10077605 0.86000007 4283052830
-0.089718334 0.10027343 0.86000001 4282660899
-0.073347159 0.10048884 0.86000007 4282922524
-0.064423762 0.10234022 0.86155003 4282133530
-0.19181173 0.17646851 0.86285716 4290162321
-0.18534578 0.17647995 0.86200017 4289371784
-0.17430027 0.17678423 0.86071426 4289503367
-0.16487212 0.17773476 0.8627001 4289372808
-0.15521254 0.1770943 0.86253351 4288582018
-0.14357808 0.17789128 0.86200011 4286938736
-0.13505502 0.17745882 0.86209995 4287596151
-0.12553895 0.17789418 0.86347377 4286477931
-0.1149103 0.17841358 0.86233324 4289568913
-0.10504075 0.17834435 0.86200011 4289437581
-0.094926834 0.17862552 0.86307693 4289372039
-0.084689252 0.1780102 0.86142844 4285426528
-0.075198278 0.17785385 0.86100012 4287265905
-0.065707847 0.17737743 0.86153859 4289503116
-0.19274187 0.18055266 0.86900002 4290687120
-0.18512361 0.18055265 0.86900002 4289306252
-0.17598172 0.18055266 0.86900008 4289568906
-0.16379251 0.18207632 0.86900008 4289568902
-0.15845972 0.1813145 0.86900002 4289764746
-0.14550869 0.18093358 0.86900002 4286015581
-0.13484313 0.18207632 0.86900002 4285687906
-0.11427385 0.18207632 0.86900002 4289699726
-0.091419071 0.18207632 0.86900002 4289307527
-0.085324466 0.18207632 0.86900002 4287730826
-0.07519982 0.18153754 0.86642873 4288713349
-0.067802481 0.18207632 0.86900002 4289437588
-0.19217582 0.18298425 0.87333339 4290620039
-0.18499564 0.18270488 0.87200004 4289240450
-0.17419954 0.18339618 0.87366676 4289438342
-0.16516714 0.18550956 0.87722236 4289699467
-0.15427174 0.18331009 0.87405574 4287925880
-0.14480682 0.18457052 0.8746925 4285358944
-0.13567542 0.18588851 0.8743751 4285557093
-0.12532021 0.18406528 0.87453866 4286938478
-0.11552484 0.18413506 0.87481838 4289503373
-0.10485052 0.1836815 0.87300014 4289306509
-0.095308341 0.18449192 0.87441677 4289372807
-0.084421597 0.18549144 0.87633348 4289110663
-0.07486736 0.18595621 0.87623084 4289241224
-0.064842217 0.18412347 0.87457162 4289502602
-0.19224209 0.18760975 0.88066673 4290752395
-0.18492436 0.18786541 0.88150007 4289371779
-0.17533748 0.18788561 0.88152939 4289569679
-0.16484109 0.18872218 0.88127273 4289568908
-0.15487106 0.18837737 0.88092315 4288845443
-0.14584525 0.18854332 0.88022232 4285622631
-0.13228905 0.18878722 0.8804 4287466629
-0.12512 0.18845321 0.88100004 4286609767
-0.11496828 0.18826912 0.88014287 4288448885
-0.10497808 0.1883458 0.88050008 4289306245
-0.095110573 0.188546 0.88083339 4289372818
-0.085478768 0.18839273 0.88 4289503623
-0.074832492 0.18900989 0.88000005 4289568654
-0.064524174 0.18817224 0.88150001 4289371529
-0.059875637 0.18895817 0.88700002 4286476400
-0.19253236 0.1909859 0.88200003 4288513142
-0.18468486 0.19286241 0.88766664 4289371269
-0.17478363 0.19298786 0.88792312 4289765261
-0.16503912 0.19384326 0.88800001 4289503879
-0.15652736 0.19340006 0.88761544 4289174664
-0.14427468 0.19294317 0.8866154 4285884759
-0.13515635 0.19345532 0.8866111 4285885025
-0.12493376 0.19293791 0.88769233 4285886824
-0.11501394 0.19350505 0.88644445 4284241486
-0.10550656 0.19339079 0.88711113 4288122237
-0.094909243 0.19371073 0.88738894 4289568910
-0.084972396 0.19366071 0.88680011 4289699977
-0.075441949 0.19315057 0.88720006 4289633929
-0.064334683 0.19282313 0.88794118 4289568915
-0.058904577 0.19254608 0.88800001 4285557860
-0.18307805 0.19746304 0.89500004 4289633945
-0.17501609 0.19742931 0.89338458 4289699723
-0.16458589 0.19828682 0.89400005 4289569423
-0.15395278 0.19737488 0.89423078 4288846987
-0.14566061 0.19735041 0.89329994 4285228896
-0.13454694 0.19769318 0.8928889 4285227614
-0.12497582 0.19756581 0.89399993 4285163109
-0.11417039 0.19784321 0.89200002 4284571735
-0.10439086 0.19806004 0.89533341 4288713596
-0.09460552 0.19781151 0.89185715 4289438082
-0.084498204 0.19795412 0.8925001 4289569162
-0.074563354 0.19752882 0.89340001 4289568648
-0.065331958 0.19732691 0.89292306 4289503631
-0.057778355 0.19791217 0.89466667 4283648821
-0.18028003 0.2007485 0.89800006 4289896326
-0.17476928 0.20074849 0.89800006 4289765257
-0.16507858 0.20045042 0.89666677 4289569689
-0.15494002 0.20055689 0.89714289 4289241992
-0.14170483 0.2007485 0.89800006 4285556063
-0.13540684 0.20074849 0.89800006 4285361252
-0.11336386 0.2007485 0.89800006 4285556575
-0.10706587 0.2007485 0.89800006 4287658871
-0.095257126 0.20074847 0.89800012 4289634696
-0.085022897 0.20074849 0.89800006 4289438092
-0.075103559 0.20074849 0.89800006 4289438348
-0.067703418 0.2007485 0.89800006 4289765258
-0.18562156 0.19983938 0.90100002 4289306001
-0.18435976 0.20415883 0.90566671 4289633410
-0.17483415 0.20503412 0.9065001 4289700232
-0.16529775 0.20503409 0.90649992 4289634698
-0.15567715 0.20492058 0.90599996 4289372553
-0.14513822 0.20427768 0.90420008 4286081644
-0.1346834 0.20534725 0.90510517 4286805864
-0.12533702 0.20424266 0.90545005 4285229419
-0.11498279 0.20459723 0.90456247 4285096024
-0.10519093 0.20455706 0.90458822 4288121728
-0.095197707 0.20546478 0.90488881 4289634440
-0.085203104 0.20627584 0.90442336 4289503881
-0.075150631 0.2058281 0.90518528 4289503630
-0.064756617 0.20487307 0.90481818 4289634956
-0.059525844 0.20397817 0.90533334 4288846211
-0.19011012 0.20936176 0.91500002 4286743674
-0.18480314 0.20857818 0.91257143 4289961604
-0.17494497 0.20849231 0.91120005 4289961860
-0.16560258 0.20880611 0.91257143 4289765771
-0.15502624 0.20856094 0.91150004 4289634442
-0.14678951 0.20821773 0.91000003 4285164900
-0.124722 0.20867534 0.912 4284966751
-0.11657225 0.20838934 0.91075003 4284176722
-0.10370998 0.20821773 0.91000003 4289305479
-0.092541203 0.20981325 0.91000003 4289897096
-0.071001448 0.20981325 0.91000003 4289634953
-0.065184005 0.20966174 0.91050005 4289766286
-0.19073343 0.21165776 0.91800004 4285363064
-0.18479751 0.21211672 0.91650009 4289436801
-0.17515589 0.21211672 0.91650009 4289831306
-0.16510177 0.21220523 0.91661549 4289831564
-0.15442298 0.21236168 0.91607153 4289700489
-0.14493102 0.21240789 0.91505557 4286279522
-0.13479514 0.2118272 0.91525006 4287594354
-0.12534092 0.21211672 0.91650009 4285097815
-0.1147178 0.21256144 0.91680014 4284834392
-0.10474486 0.21283017 0.91647387 4288055682
-0.0951638 0.21295531 0.91526675 4289700492
-0.084744401 0.21395981 0.91447061 4289700492
-0.075345054 0.21402101 0.91433334 4289700494
-0.064685158 0.21275088 0.9139334 4289765772
-0.19065146 0.21488962 0.92150003 4284243544
-0.18535814 0.21695402 0.92410004 4289502612
-0.17459176 0.21662323 0.92199999 4289635469
-0.16515748 0.21697523 0.92350006 4289831559
-0.15612611 0.21718386 0.92370003 4289831561
-0.14500611 0.21733406 0.92257136 4286083174
-0.13538976 0.21673971 0.92223084 4286017383
-0.12486927 0.21648863 0.92169231 4285886563
-0.11539738 0.21673736 0.92179996 4284638045
-0.10524765 0.21859443 0.92350006 4288188547
-0.095013089 0.21846631 0.92269236 4289700499
-0.085076995 0.21935895 0.92428583 4289700237
-0.073970854 0.21935895 0.92428583 4289765770
-0.065000802 0.21827942 0.92372739 4289700241
-0.14481173 0.22047181 0.92800003 4285820770
-0.13423559 0.2204718 0.92800003 4285426017
-0.12528656 0.22047181 0.92800003 4285754206
-0.11471042 0.22101419 0.92800003 4288058510
-0.10485015 0.22189377 0.92714292 4289634960
-0.094371699 0.2220989 0.92800003 4289635477
-0.084609099 0.2220989 0.92800003 4289634959
-0.074722908 0.22214669 0.92650008 4289700232
-0.06589748 0.22177348 0.92800009 4289634701
-0.18181245 0.21931636 0.93000007 4289700498
-0.19057825 0.22165969 0.93300003 4284044630
-0.18503168 0.22422144 0.93599999 4289436814
-0.17476998 0.22365893 0.93450016 4289766036
-0.16480593 0.22439258 0.93528575 4289831566
-0.15547971 0.22413555 0.9343183 4289896838
-0.14443855 0.2251664 0.93481249 4286147946
-0.13487902 0.22562708 0.93376946 4285821027
-0.12486666 0.22599703 0.93400002 4285887584
-0.11523431 0.22638223 0.93414271 4289699722
-0.10484497 0.22689573 0.9343335 4289831568
-0.095032841 0.22693416 0.93449998 4289896845
-0.085232556 0.2270157 0.93483341 4289569934
-0.075332627 0.22701855 0.93400002 4289700488
-0.064883873 0.2259962 0.93352389 4289569166
-0.059837066 0.22295454 0.93500006 4288713600
-0.092921682 0.23107073 0.93800002 4289831564
-0.068252213 0.23107071 0.93800002 4289700239
-0.18508111 0.22887422 0.94249994 4288779397
-0.17470266 0.22826715 0.94000006 4289042062
-0.1681101 0.22826715 0.94000006 4289437068
-0.15245278 0.22826715 0.94000006 4289896583
-0.14586024 0.22881652 0.94000006 4287792763
-0.060981117 0.22909123 0.94000006 4289503632
-0.19031788 0.2335342 0.94800007 4279048999
-0.18495435 0.23223315 0.94608337 4288514680
-0.17477563 0.23237577 0.94692314 4288318334
-0.1642729 0.23313561 0.94637501 4289635219
-0.15458445 0.23299503 0.94615787 4289962117
-0.14501224 0.23324823 0.94593334 4287135343
-0.13478638 0.2331934 0.94325 4287661166
-0.12479454 0.23306935 0.94275004 4286345575
-0.11494032 0.2331934 0.94325 4289961603
-0.10434819 0.23367864 0.94320005 4289766032
-0.094996087 0.23436423 0.94423538 4289766030
-0.084823884 0.2344206 0.94521064 4289634953
-0.074841626 0.23466977 0.94547057 4289700496
-0.06474027 0.23428097 0.94584626 4289830797
-0.19112092 0.23702419 0.95200002 4279973695
-0.18512425 0.23747215 0.9535386 4287725929
-0.1751363 0.23728848 0.95336378 4288648070
-0.16587098 0.23765542 0.95214283 4289173127
-0.15469645 0.23832193 0.95385724 4289830791
-0.14472075 0.23840758 0.95420009 4286870629
-0.13515843 0.23777463 0.95166665 4286742134
-0.12522988 0.23794119 0.95233345 4285363564
-0.11529867 0.23810779 0.95300007 4290027147
-0.10557508 0.23890182 0.95200008 4289635475
-0.095174141 0.23961096 0.95233345 4289635470
-0.085098289 0.23944323 0.95166677 4289634960
-0.075110391 0.23952709 0.95200008 4289766292
-0.064546861 0.2387656 0.95312506 4289699719
-0.19100548 0.24134558 0.95700002 4280300608
-0.18556021 0.24152851 0.95900005 4285951841
-0.17318954 0.2412883 0.95900005 4288188799
-0.16478227 0.2412883 0.95900005 4289501314
-0.15469356 0.2412883 0.95900005 4289831558
-0.14391954 0.24122956 0.95685714 4287395690
-0.1361938 0.24134558 0.95700002 4286609519
-0.12520991 0.24118046 0.95857149 4286281077
-0.11383025 0.24173015 0.95825005 4289896592
-0.10442066 0.24309066 0.95800006 4289700752
-0.095297053 0.24331947 0.95736372 4289832079
-0.085217118 0.24410817 0.95768756 4289700244
-0.075936437 0.24396469 0.95712519 4289831824
-0.064994194 0.24307093 0.95749986 4289634953
-0.059691537 0.24212903 0.95900005 4289767062
-0.19208524 0.24431896 0.96100003 4281484110
-0.18481773 0.24532367 0.96469235 4286675310
-0.17480391 0.24576756 0.9648335 4287859067
-0.16526935 0.24579565 0.9648 4288186492
-0.15439519 0.2457312 0.96464306 4289897352
-0.14555569 0.24609365 0.96420002 4289042307
-0.13488083 0.24657412 0.96520007 4286872182
-0.12513971 0.24605785 0.96450013 4287398264
-0.11556203 0.2465231 0.96500003 4289766290
-0.10563806 0.24705535 0.96400005 4289897356
-0.094459377 0.24710327 0.96200007 4290028433
-0.08496578 0.24862315 0.9622857 4289700238
-0.073800758 0.24840103 0.96212512 4289700747
-0.065007918 0.24755485 0.96309996 4289568650
-0.10342419 0.25008306 0.96700007 4289962636
-0.094561458 0.25085372 0.96700007 4290028439
-0.08477392 0.25177857 0.96700007 4289700754
-0.074601054 0.25177857 0.96700007 4289766287
-0.065275922 0.25076127 0.96700013 4289765509
-0.1846076 0.24926093 0.97040004 4287397490
-0.17942791 0.24915819 0.97000003 4289111187
-0.16242051 0.24915819 0.97000003 4288714375
-0.15731831 0.24915819 0.97000003 4289765765
-0.057628289 0.24812417 0.9715001 4286673255
-0.18522072 0.25356528 0.97638458 4285491034
-0.1742277 0.25354978 0.9753077 4288517243
-0.16461384 0.25410357 0.97452635 4289107840
-0.15506062 0.25335202 0.97341192 4289700235
-0.14498371 0.25330114 0.9728334 4289700750
-0.13460894 0.25423941 0.97404557 4289568652
-0.12490961 0.255633 0.97475868 4289832081
-0.11510586 0.25541583 0.97414267 4289962385
-0.10535952 0.25586206 0.97407693 4289897361
-0.095398597 0.25676718 0.97417665 4289963163
-0.085385546 0.25702041 0.9740001 4289832085
-0.075197913 0.25721148 0.97472245 4289766294
-0.064635508 0.25629407 0.97477269 4289568397
-0.056163006 0.25330189 0.97638452 4285357912
-0.11231712 0.26150167 0.97799999 4288121966
-0.092597313 0.26150167 0.97800004 4289369466
-0.085615769 0.26199159 0.9780001 4288645486
-0.1849027 0.25714377 0.98100007 4285226062
-0.17553067 0.25784904 0.98149997 4288384370
-0.16598243 0.25886378 0.98100007 4289042825
-0.15480226 0.25886378 0.98100001 4289698954
-0.14448212 0.25886378 0.98100001 4289832079
-0.13846202 0.25886378 0.98100007 4289765519
-0.055655099 0.25788093 0.98100001 4284764497
-0.18484992 0.26166844 0.98900002 4285157964
-0.17555444 0.26289663 0.98840016 4284501827
-0.1644759 0.26261443 0.98509097 4285092161
-0.15493733 0.26357245 0.9866001 4284106300
-0.14522378 0.26253352 0.98400003 4284832579
-0.13502198 0.26144385 0.98100007 4287264342
-0.12525959 0.26342484 0.9812308 4282920739
-0.11620322 0.26471791 0.98186672 4283647299
-0.10513543 0.26542783 0.98299998 4284504939
-0.095042266 0.26567253 0.98200017 4282200885
-0.084476225 0.26634616 0.98185718 4280819740
-0.075328715 0.26516765 0.9820419 4284173379
-0.065152347 0.26521966 0.9832918 4285093711
-0.058364812 0.26449272 0.98563647 4285556061
-0.10491014 0.27137911 0.98900002 4280626502
-0.09508355 0.27055591 0.98600006 4278584584
-0.084028125 0.27060765 0.9852857 4278650632
-0.075227864 0.27122426 0.98633343 4278782218
-0.064905442 0.2708852 0.98720008 4278979596
-0.18488103 0.2669329 0.99216664 4279636250
-0.17495944 0.26809782 0.99290001 4278190080
-0.16819145 0.26768011 0.99199998 4278321668
-0.18410933 0.2719551 0.99533337 4278716942
-0.17445719 0.27128091 0.99500006 4278190080
-0.072181441 0.27394161 0.99200004 4278650631
-0.060006261 0.27220228 0.99200004 4279110669
-0.058266949 0.27046299 0.99200004 4279438868
