# .PCD v0.7 - Point Cloud Data file format
VERSION 0.7
FIELDS x y z rgba
SIZE 4 4 4 4
TYPE F F F U
COUNT 1 1 1 1
WIDTH 236
HEIGHT 1
VIEWPOINT 0 0 0 1 0 0 0
POINTS 236
DATA ascii
0.026350982 0.288349 0.81833345 4278982186
0.034513157 0.28804302 0.81733346 4280627013
0.044869754 0.28847063 0.81838477 4279179050
0.0080774119 0.29814625 0.81900012 4278784806
0.015681623 0.29547518 0.81663644 4282995305
0.024888594 0.29401839 0.81380022 4289046458
0.035067994 0.29414409 0.8130393 4289967560
0.044918686 0.29440448 0.81562966 4288981176
0.051428441 0.29636869 0.81855571 4289177274
0.0086159064 0.30083874 0.81900007 4278719803
0.012184826 0.30034897 0.81766671 4282276232
0.048704237 0.30010405 0.81700003 4289506751
0.050977446 0.30083874 0.81900007 4289899199
0.027774893 0.2781339 0.82735312 4279309344
0.035372015 0.27712506 0.82618928 4279047712
0.043574437 0.27867138 0.82730782 4283386447
0.0094478652 0.28997678 0.82900006 4279047965
0.016846815 0.28733066 0.82708007 4279310371
0.024775779 0.28421834 0.82395643 4279440926
0.035499204 0.28338933 0.82186466 4278980889
0.045345638 0.28419244 0.82336348 4281478187
0.053554546 0.28671718 0.8274138 4279111188
0.0067893988 0.29532921 0.82538456 4280488992
0.013854756 0.29164895 0.82376188 4278652956
0.0555484 0.29432592 0.82394725 4283981673
0.06090147 0.29568309 0.82776928 4282532679
0.0039728461 0.3015019 0.82424998 4281278762
0.056094907 0.30122179 0.82239997 4289177019
0.060638338 0.3014524 0.82540005 4288453807
0.035305224 0.25964051 0.83900005 4278913548
0.019360948 0.26811442 0.83866674 4278390814
0.025053229 0.26574525 0.83705705 4278586647
0.034610163 0.26494563 0.83582389 4278717718
0.043450084 0.26581311 0.83643758 4278717720
0.050751261 0.26993787 0.83900005 4278520337
0.018224239 0.27594331 0.83743477 4279771953
0.024929691 0.27399483 0.83326083 4279179303
0.034655686 0.2721386 0.83260012 4278784028
0.044940952 0.27414861 0.83365291 4281218871
0.053753741 0.27635974 0.83618915 4279046936
0.008597495 0.28869224 0.83475 4279637280
0.014846702 0.28445938 0.83452958 4279574064
0.021855365 0.28047717 0.83100003 4280756790
0.056178667 0.28312242 0.83293325 4278914838
0.061140068 0.28555676 0.834077 4278782221
0.0065644993 0.29223916 0.83200002 4281866012
0.06243464 0.2924934 0.83133334 4278716428
0.029027395 0.2493379 0.84900004 4278325023
0.031260274 0.2493379 0.84900004 4278260000
0.025802393 0.25581375 0.84705019 4278585876
0.033983465 0.25494349 0.84633356 4278521111
0.015724488 0.26796374 0.84437501 4278717977
0.024922427 0.26133907 0.84192306 4278519307
0.032587722 0.26055437 0.84099996 4278848531
0.047916468 0.26488847 0.84259999 4278848272
0.054616395 0.26631227 0.84452933 4278585615
0.060497481 0.26841131 0.84500003 4278913550
0.0072182566 0.27416199 0.84669709 4278849560
0.013325583 0.2741988 0.84306896 4278588966
0.057149775 0.27328992 0.84242857 4278650892
0.061014984 0.27426192 0.844091 4278716428
0.0082137091 0.28398204 0.84333348 4278982180
0.012149281 0.28240138 0.8422727 4278785833
0.064870894 0.28173274 0.84659994 4278979598
0.037099913 0.23889665 0.85783321 4278783512
0.042554229 0.23923254 0.85760003 4279243801
0.018288491 0.24802612 0.85733336 4278652955
0.025175598 0.24588946 0.85458714 4278390812
0.035269365 0.24497564 0.85264826 4278652441
0.04463198 0.24550557 0.85485017 4278914321
0.050772302 0.24784404 0.85800004 4278782219
0.017043633 0.25553301 0.85655004 4278653467
0.021459403 0.25328463 0.85193324 4278652697
0.039167389 0.25328249 0.85100001 4278979856
0.045377541 0.2546013 0.85439414 4279045906
0.053875156 0.25617623 0.85635746 4278717458
0.060926761 0.25875068 0.85800004 4278848273
0.007604091 0.26741207 0.85394728 4279178274
0.013267644 0.26486987 0.85494995 4278456863
0.048844069 0.26217279 0.85283327 4278979597
0.055201806 0.2619592 0.85204983 4278717200
0.060926761 0.26175943 0.85800004 4278782477
0.0037302277 0.27081451 0.85100001 4278848012
0.028695432 0.22829373 0.86900002 4278587161
0.035023376 0.22765391 0.86850023 4278849046
0.041595675 0.22870004 0.86900008 4279048479
0.026162198 0.23524344 0.86416286 4278717457
0.034550808 0.23400539 0.86272734 4278784024
0.045389503 0.23507845 0.86635298 4279572509
0.053223565 0.2390365 0.86866665 4278914063
0.0098866373 0.24944615 0.86750007 4278523937
0.014232725 0.24853382 0.86379993 4278522397
0.024578299 0.24125938 0.86000001 4278717198
0.03091136 0.24050544 0.86000001 4278456100
0.048019562 0.24160391 0.86033338 4279177754
0.055131312 0.24498925 0.86293596 4278717199
0.060184222 0.24454601 0.86900002 4278521371
0.00788082 0.25590211 0.86580765 4278718747
0.013053446 0.25430563 0.86218184 4278523430
0.057847518 0.25271755 0.86014283 4278716684
0.061068784 0.25709203 0.86000001 4278782732
0.007415385 0.26294839 0.86117667 4279048226
0.011811658 0.26186696 0.86000007 4278588964
0.043074269 0.26071268 0.86200005 4279045133
0.028479477 0.21936895 0.87800002 4278586901
0.03384224 0.21860325 0.8774001 4278586902
0.017214654 0.22563393 0.87557149 4278652438
0.024804939 0.22484785 0.87473893 4278586902
0.034901876 0.22277905 0.87384373 4278586904
0.045184314 0.22586557 0.87354052 4278849042
0.052959856 0.22698572 0.87700015 4278782736
0.0076971566 0.23861185 0.87800002 4279049003
0.015188813 0.23511578 0.87666672 4278653470
0.021450141 0.23371848 0.87146175 4278652182
0.04877625 0.23209432 0.87128586 4279639073
0.055262696 0.23475616 0.87381083 4278717716
0.06138175 0.23798645 0.87740004 4278980115
0.006629243 0.24563122 0.87651855 4278915095
0.01185362 0.24122886 0.87800008 4278457638
0.058795579 0.24129096 0.87100005 4278782736
0.061112911 0.24188502 0.875 4278848530
0.0045960015 0.25275078 0.87442869 4278387461
0.038967952 0.19873655 0.88900006 4278718486
0.019483976 0.20964758 0.88900006 4278457122
0.025338849 0.20678703 0.88830757 4278390812
0.035467654 0.20535049 0.88776177 4278587934
0.042941891 0.20609531 0.88889474 4279180327
0.018230632 0.2156775 0.88711107 4278519048
0.024704732 0.21522465 0.88361675 4278454286
0.034620441 0.21400313 0.88402385 4278916640
0.045202821 0.2145835 0.88900006 4281085494
0.052909825 0.21813394 0.88900006 4279308823
0.0065355068 0.22800569 0.88464278 4280297273
0.011873132 0.22702213 0.88163644 4278588193
0.047093555 0.22124375 0.88327289 4278980371
0.05527756 0.22338414 0.88382858 4278848271
0.061153822 0.22913243 0.88300002 4278979597
0.005840932 0.23479328 0.88135993 4279836203
0.010806264 0.23311514 0.88050002 4278654503
0.059017375 0.23182642 0.88000005 4278651663
0.062650166 0.23482551 0.88071436 4278783508
0.00265962 0.24428722 0.88088894 4278650632
0.0634588 0.24532166 0.88275003 4278782737
0.0027014567 0.25473073 0.88050002 4278190080
0.025842372 0.19808719 0.89580953 4278586127
0.034846261 0.19635198 0.89552796 4278850075
0.043278769 0.19754624 0.89539993 4279440409
0.01651163 0.20650457 0.89366674 4278456348
0.024343681 0.20246391 0.89212495 4278586902
0.032486606 0.20151196 0.89142853 4278652440
0.047262624 0.20391665 0.89350009 4278783767
0.054487791 0.2068463 0.89688909 4278717458
0.060618173 0.20783374 0.89800006 4279177752
0.0082098823 0.2151439 0.89800012 4278786603
0.01321715 0.21434486 0.89448285 4278456864
0.047517668 0.21376441 0.89099985 4281349952
0.055370539 0.21414246 0.89323562 4278981405
0.060541026 0.21464248 0.89685714 4279046423
0.01332362 0.22023161 0.89400005 4278651667
0.060348161 0.22101535 0.89400005 4279242771
0.037147399 0.17857285 0.90800005 4278980113
0.041392818 0.17910354 0.90800005 4279045905
0.019369716 0.18812506 0.90800005 4278261025
0.025941584 0.18670943 0.90657175 4278521881
0.03504524 0.18517847 0.90602458 4278785310
0.043952234 0.18525772 0.90764755 4279442981
0.019218093 0.19229464 0.90800005 4278585355
0.024918515 0.19334918 0.90361542 4278716942
0.034468275 0.19143051 0.90146154 4279377188
0.045740046 0.19410901 0.90416241 4281546046
0.053704415 0.19680171 0.90683335 4279640107
0.061293207 0.19979995 0.90800005 4280491299
0.055939216 0.2021482 0.90250015 4279045649
0.06132229 0.20325387 0.90450001 4279506977
0.0071089109 0.21879649 0.90100002 4279050799
0.02656048 0.17618026 0.9161787 4278717716
0.033477876 0.17579937 0.91466671 4278915608
0.049091727 0.17946647 0.91800004 4278850074
0.0547252 0.17946647 0.91800004 4279046166
0.060358685 0.17946647 0.91800004 4280296487
0.016482515 0.18551882 0.91379166 4278521882
0.024294917 0.18165973 0.91165 4278521366
0.031112993 0.18109357 0.91000003 4278260002
0.048246473 0.18178774 0.91216666 4278914322
0.054346859 0.1848591 0.91469234 4278849046
0.060740028 0.1854293 0.9156667 4280033576
0.0064360048 0.19707812 0.91757154 4279509288
0.013639464 0.19311295 0.91572231 4278522137
0.056171235 0.19379146 0.91230774 4278915611
0.062116005 0.19484058 0.91425008 4280887859
0.0072430414 0.20039083 0.91800004 4278985006
0.063023753 0.20024003 0.91000003 4280491299
0.035394087 0.15850078 0.92718184 4278784799
0.018711628 0.16759112 0.92800003 4278587932
0.025345119 0.16651435 0.9265517 4278783765
0.034986328 0.16479336 0.92518157 4281084970
0.043339714 0.16543679 0.92721063 4283781705
0.017563462 0.17445908 0.92692322 4278584839
0.023230461 0.17241007 0.92254543 4278782477
0.036208991 0.17132922 0.92145461 4284899671
0.046455581 0.1738251 0.92762518 4286542432
0.05490889 0.17735523 0.92468423 4279506459
0.061562929 0.17820436 0.92400002 4281873982
0.0071508321 0.18783508 0.92536372 4282860590
0.01164843 0.18671227 0.92085713 4278391581
0.062103253 0.18147053 0.92000002 4280822579
0.006623148 0.19182234 0.9217 4282136875
0.010484965 0.19114897 0.92000002 4278391848
0.018137021 0.15703416 0.93566674 4279112736
0.02453611 0.15623434 0.93575734 4279046944
0.033509277 0.15487522 0.93434781 4279836459
0.044846207 0.1577493 0.93542111 4282008391
0.05141174 0.15915968 0.9368 4279440417
0.0079490524 0.16747832 0.93800002 4279441941
0.014857468 0.1656229 0.93496674 4278718747
0.023671485 0.16194314 0.93115389 4278914578
0.047669206 0.1640294 0.93088239 4280164900
0.053843383 0.16545765 0.93563998 4278914579
0.0071052513 0.17516084 0.93691295 4280032541
0.012831008 0.17422856 0.93269575 4278652436
0.048646379 0.17148529 0.93000013 4288847496
0.055656265 0.17299439 0.93178278 4279901214
0.061092101 0.17377743 0.93419999 4284308062
0.0056253676 0.18351525 0.93349993 4285556829
0.010633122 0.18076307 0.93300003 4278653470
0.017594557 0.15228057 0.94577777 4281021240
0.024576986 0.15127763 0.94090003 4280690229
0.035228956 0.15183474 0.94000006 4281815395
0.044969946 0.15275928 0.94190925 4283789187
0.053851701 0.15491585 0.94500005 4279442982
0.0085153813 0.16398977 0.94000006 4278979863
0.011536968 0.16234162 0.94000006 4278850073
0.057945047 0.16330494 0.94300008 4279177496
0.060651712 0.16538958 0.94450003 4280690216
0.0041203457 0.1738786 0.94000006 4287528048
0.061805189 0.17140639 0.94000006 4278981666
