# .PCD v0.7 - Point Cloud Data file format
VERSION 0.7
FIELDS x y z rgba
SIZE 4 4 4 4
TYPE F F F U
COUNT 1 1 1 1
WIDTH 211
HEIGHT 1
VIEWPOINT 0 0 0 1 0 0 0
POINTS 211
DATA ascii
0.18865398 0.23900896 0.80900002 4288121509
0.19556862 0.23845804 0.80839121 4285624197
0.20440127 0.23840714 0.80816668 4286875553
0.21421963 0.23919222 0.80812508 4287335070
0.22400331 0.23935233 0.80816674 4287268511
0.23592475 0.23883714 0.80788893 4287333272
0.24233046 0.23860922 0.80825007 4287267988
0.18627945 0.24558586 0.80660862 4284505451
0.1948562 0.24502553 0.80579072 4284765796
0.20445944 0.24478535 0.80699968 4284636014
0.21467413 0.24520732 0.80660754 4283585136
0.22497796 0.24481541 0.80699974 4283584624
0.23526452 0.24483915 0.80747795 4282994553
0.24409448 0.24392793 0.80776912 4282203481
0.18671106 0.25183925 0.80750012 4279702558
0.19352421 0.25165054 0.80860007 4279900708
0.20496616 0.25035658 0.80900002 4280228911
0.21347685 0.2515386 0.80900002 4280623416
0.22567554 0.25064024 0.80900002 4280559949
0.23475361 0.25035658 0.80900002 4280630913
0.24042742 0.25035658 0.80900002 4279842680
0.1880967 0.22888716 0.81788898 4287598747
0.19505453 0.22804101 0.81799996 4282399816
0.20513856 0.22745697 0.81817669 4287399578
0.21516339 0.22750588 0.81803048 4285426556
0.22505374 0.22734734 0.81808567 4285426814
0.2353469 0.22708428 0.81768423 4287595675
0.24187325 0.22661288 0.81580025 4287398811
0.18569739 0.23531917 0.81515098 4287730088
0.19460893 0.23351695 0.81241477 4283123024
0.20522401 0.23338124 0.81268436 4287268762
0.21520229 0.23424023 0.81278723 4287400348
0.22500308 0.23444194 0.8129583 4287465117
0.23472762 0.23402892 0.81257474 4287333533
0.24378023 0.23402585 0.81215149 4286411909
0.18264829 0.24269687 0.8145653 4287599537
0.18556546 0.25381944 0.81100005 4279637024
0.19557381 0.25520751 0.81278944 4279768869
0.20514043 0.25511953 0.81338477 4279769121
0.21499352 0.2550565 0.81266659 4280294447
0.22469799 0.25387752 0.81174999 4280098091
0.23339276 0.25284252 0.81166673 4280429141
0.18727252 0.21733353 0.82830018 4287269016
0.19538806 0.21672259 0.82770264 4284307043
0.20486112 0.21642527 0.82742107 4287662749
0.21513905 0.21641204 0.82778049 4284373349
0.22475559 0.21639417 0.82715815 4284242281
0.23545796 0.21678708 0.8276487 4287268758
0.24163643 0.21633033 0.82681823 4287464860
0.18524787 0.22514573 0.82539219 4287401895
0.19509609 0.22291388 0.82305533 4283453272
0.20481394 0.22221854 0.82242835 4287662491
0.21474949 0.22246046 0.8230688 4285227375
0.22474422 0.22205812 0.82231021 4285162867
0.23504139 0.22215804 0.82307404 4287268252
0.24180861 0.22125073 0.82275003 4287529617
0.17938231 0.23718901 0.82424998 4287138991
0.18133728 0.23354459 0.82287496 4287401647
0.17921664 0.24111474 0.82100004 4287009454
0.20944594 0.25982812 0.82100004 4279835434
0.21304467 0.25982812 0.82100004 4280163375
0.20734429 0.2628499 0.82344437 4279900713
0.21283273 0.26412109 0.82499999 4280229171
0.18653677 0.20665719 0.83678579 4287860642
0.19497508 0.20612079 0.836375 4287663521
0.20461345 0.20607592 0.8365556 4287728801
0.21530631 0.20699848 0.83596975 4284505448
0.22478274 0.20639509 0.83608103 4284768622
0.23498647 0.20645486 0.83654839 4287399577
0.24141106 0.20692113 0.83700001 4287661213
0.18368469 0.21410926 0.83419997 4287205032
0.19445802 0.21210153 0.83170003 4287794850
0.20556395 0.21140257 0.83289486 4287859615
0.21420276 0.21142861 0.83250016 4286347656
0.22574534 0.2116335 0.83244455 4285427833
0.23470153 0.211806 0.83344454 4287269015
0.24154881 0.21168019 0.83385724 4287334044
0.18114908 0.22465007 0.8334617 4287335333
0.18037559 0.23149419 0.833 4287139499
0.18599568 0.19605342 0.84680045 4287794593
0.19500203 0.19605881 0.84521753 4287859872
0.20481031 0.19609056 0.84585029 4287663261
0.21514271 0.1954947 0.8465814 4285032828
0.22496165 0.19507307 0.84610194 4285689736
0.2348544 0.1955476 0.84548783 4287792793
0.24096309 0.19730639 0.84400004 4287269015
0.17911011 0.20691763 0.84600008 4285758361
0.18350983 0.20345503 0.84343255 4287532196
0.19477399 0.20132992 0.84122229 4287925151
0.20557718 0.2014256 0.84162503 4287859867
0.21491906 0.20212661 0.84181482 4285360249
0.22504833 0.20143552 0.8416667 4285163129
0.23548289 0.20210297 0.84204352 4287465373
0.24163628 0.2022512 0.84233338 4287334039
0.179233 0.21128345 0.84366673 4285165193
0.18084811 0.21111161 0.84200001 4286812846
0.20985883 0.17977156 0.85800004 4287403426
0.21361977 0.17977156 0.85800004 4286943128
0.18589832 0.1870074 0.85518527 4287926435
0.19492593 0.18571819 0.85481405 4287926178
0.20503096 0.18502542 0.85495752 4287663517
0.21501164 0.18518709 0.85495669 4286874261
0.22487004 0.1853828 0.85508907 4287005843
0.23500164 0.1856474 0.85547513 4287596701
0.24081734 0.18754916 0.85575008 4287334040
0.17950943 0.19770281 0.85471439 4287072674
0.18287605 0.1925249 0.85240901 4287532961
0.19553176 0.1907842 0.85099989 4287860640
0.20506927 0.19126742 0.85099989 4287531937
0.21426424 0.19083846 0.85099995 4283584365
0.22455971 0.19024161 0.85099995 4285689469
0.23527564 0.19091983 0.85099989 4287661712
0.24085175 0.19203295 0.85233337 4287269257
0.1789 0.20199926 0.8538571 4285952136
0.18733987 0.168779 0.86900008 4288123297
0.19528131 0.16937922 0.86900002 4287860128
0.20546885 0.16872197 0.8690002 4284045405
0.21437772 0.16866818 0.8690002 4279307795
0.2241672 0.16969664 0.86900002 4279703327
0.23489624 0.16937922 0.86900002 4287662491
0.17880283 0.17769568 0.86790919 4287664037
0.18494397 0.17525893 0.8651489 4287927207
0.19492486 0.17502695 0.86417025 4287991456
0.20495085 0.17497221 0.86406493 4285950837
0.2148871 0.1749396 0.86342549 4279900450
0.22500996 0.17499855 0.86420017 4280822578
0.23457378 0.17492069 0.86346656 4287335072
0.24106479 0.17909828 0.86200005 4287398801
0.17798629 0.18480009 0.86395025 4286809242
0.18364246 0.18324038 0.8604002 4287861158
0.19492134 0.18088654 0.85999995 4287991716
0.20507045 0.18019061 0.86000007 4287663779
0.21864131 0.18019061 0.86000001 4287009965
0.22626445 0.18052568 0.86000007 4287466140
0.23492631 0.18079373 0.86000001 4287662497
0.24110858 0.1826032 0.86000001 4287595932
0.17819799 0.19377658 0.86215395 4286085781
0.18019061 0.19225357 0.85999995 4286941606
0.18627118 0.15933113 0.87800002 4287861670
0.19473806 0.15856142 0.8780002 4287991970
0.20500094 0.15881798 0.87800014 4284044373
0.21410924 0.15868969 0.8780002 4278453252
0.22552668 0.15894628 0.87800014 4281216307
0.23440804 0.15862061 0.8780002 4287465113
0.17959842 0.16885307 0.87550002 4288190887
0.18465032 0.16462924 0.8750236 4287928230
0.19503234 0.16433986 0.87407148 4287926430
0.20495641 0.16359647 0.87361544 4285161317
0.21528995 0.16356875 0.87393749 4278584581
0.22497915 0.16489406 0.87452281 4279769118
0.23452275 0.16430643 0.87514633 4287334557
0.24009782 0.16799176 0.87500006 4287989405
0.17889512 0.17219515 0.87300014 4287665321
0.18147726 0.17078717 0.87100005 4287994035
0.18602607 0.1481671 0.88860005 4287730855
0.19502243 0.14795782 0.88792312 4287794850
0.20522311 0.14794098 0.88853848 4283650145
0.21486114 0.14791076 0.88800001 4278321667
0.22498138 0.14791074 0.88800007 4279046680
0.23400688 0.14801596 0.88811111 4279771976
0.17835169 0.15779136 0.88840008 4287862438
0.18475516 0.154493 0.88509619 4287992489
0.19511886 0.15335076 0.88384598 4287925924
0.20499572 0.15388536 0.88389999 4284571234
0.21496624 0.15359144 0.88368279 4278387459
0.22484007 0.15402064 0.884381 4279703837
0.23485841 0.15373601 0.88446134 4283715944
0.24028015 0.1531883 0.88700002 4279967813
0.17851618 0.16469504 0.88824999 4288584106
0.18059804 0.16319528 0.88225001 4288191656
0.1796269 0.17029564 0.88700002 4288910496
0.17878023 0.13852778 0.89680004 4287859101
0.18554249 0.13726854 0.89680004 4287926694
0.1949479 0.13756287 0.89666665 4287728796
0.20438889 0.13812812 0.89693338 4283913050
0.21521318 0.1376383 0.89715785 4278387459
0.22456184 0.13813002 0.89742857 4279769892
0.23466322 0.13690093 0.89723814 4284111979
0.17819588 0.14492425 0.89505005 4287068806
0.18464592 0.14387137 0.89247257 4287927465
0.19512047 0.14324147 0.89318776 4287532962
0.20500012 0.14320523 0.89329064 4284042841
0.21486194 0.14341666 0.89306271 4278321667
0.22489262 0.1433945 0.89383888 4279243548
0.23462906 0.14354402 0.89325011 4283651174
0.2406089 0.14499234 0.89400005 4284178276
0.17733245 0.15386038 0.89241666 4286806402
0.17622705 0.16483161 0.89228576 4288782000
0.17790952 0.17007209 0.89400005 4288845482
0.17645015 0.12948522 0.90800005 4286149502
0.18498717 0.1286196 0.90564287 4287203997
0.19470166 0.12814383 0.90649998 4281942881
0.2055361 0.12842968 0.90671432 4280163126
0.21503077 0.12812953 0.90721059 4279043595
0.22469091 0.12735273 0.9070003 4280953649
0.2331098 0.12787752 0.90515381 4283914855
0.17637365 0.13420457 0.90678281 4286086020
0.18423679 0.13302243 0.90340751 4287861668
0.19487756 0.13302788 0.90260011 4286217101
0.20525873 0.13360523 0.90327597 4280493621
0.21488999 0.13309664 0.90351844 4278255873
0.22536418 0.13356778 0.90265524 4280296491
0.23321313 0.13259807 0.90211105 4284046180
0.17680119 0.12601793 0.9145239 4284043597
0.18475717 0.12422675 0.91387129 4284113787
0.19504508 0.12352016 0.91351742 4281483880
0.20490138 0.12386593 0.91196781 4283650408
0.21495228 0.12305635 0.91149998 4283388257
0.22489202 0.12247821 0.91194999 4283454562
0.23426001 0.12357148 0.91355008 4283652200
0.17208581 0.13046505 0.91300005 4284500775
