# .PCD v0.7 - Point Cloud Data file format
VERSION 0.7
FIELDS x y z rgba
SIZE 4 4 4 4
TYPE F F F U
COUNT 1 1 1 1
WIDTH 1210
HEIGHT 1
VIEWPOINT 0 0 0 0 1 0 0
POINTS 1210
DATA ascii
-0.76289803 -0.18506962 1.4058889 7823433
-0.75844008 -0.18492 1.4069999 7891788
-0.76479161 -0.17638904 1.4057498 7035474
-0.75844008 -0.17554 1.4069999 4011580
-0.77356154 -0.064127944 1.4028333 10520443
-0.76776195 -0.066761911 1.402 10719094
-0.81203997 -0.053599998 1.4069999 4470877
-0.80593401 -0.054637671 1.4031111 11116185
-0.7984724 -0.05073905 1.402 13483958
-0.77740037 -0.055216279 1.4047272 11967631
-0.80399996 -0.047346663 1.4069999 13155499
-0.79453182 -0.043455556 1.4040834 13878197
-0.78424829 -0.041416194 1.4028333 14601414
-0.77916068 -0.045142859 1.4045 13681076
-0.79167205 -0.035376001 1.4069999 14074810
-0.78487623 -0.035141665 1.40575 14667206
-0.77987999 -0.036179997 1.4069999 14932919
-0.80400008 -0.011613333 1.4069999 9602176
-0.79643089 -0.01124076 1.405 9734790
-0.79713714 -0.0080114296 1.402 9800325
-0.056280006 0.046631999 1.4069999 11312536
-0.044220001 0.048239999 1.4069999 11181215
-0.71447229 -0.60430044 1.4181429 9206363
-0.70544571 -0.60814291 1.419 9337182
-0.34461433 -0.6000343 1.419 4536099
-0.3324514 -0.60138571 1.419 4798256
-0.3267566 -0.60012692 1.4154 5060912
-0.11487145 -0.6000343 1.419 2433298
-0.10676286 -0.6000343 1.419 2563344
-0.71607023 -0.59497094 1.4157271 9337695
-0.35272285 -0.59192568 1.419 5449261
-0.3446143 -0.59395283 1.4189999 4994344
-0.33530459 -0.59434903 1.4143847 4995373
-0.32557854 -0.59467286 1.4174999 5257009
-0.3175886 -0.59211433 1.413 4864818
-0.16249715 -0.59387714 1.414 2432279
-0.15546899 -0.59529382 1.416 3418393
-0.1455438 -0.59429526 1.415 3285268
-0.13591717 -0.59480572 1.413 2956054
-0.12519714 -0.59501529 1.4135 3218965
-0.11490598 -0.59564161 1.417909 2629134
-0.1081143 -0.5973314 1.419 2825485
-0.71335125 -0.58582026 1.4153078 9271650
-0.35137141 -0.58922279 1.419 6039845
-0.34400287 -0.5854876 1.4165 5583407
-0.33525229 -0.58549583 1.4185383 5191730
-0.32521445 -0.58512574 1.4179413 5257518
-0.31478554 -0.58454114 1.4162307 5257774
-0.3047747 -0.5839262 1.416 4667692
-0.29519913 -0.58314073 1.4148462 5191733
-0.2099314 -0.5813486 1.413 5055009
-0.1991657 -0.5813486 1.413 4008223
-0.17440459 -0.58242518 1.413 3677723
-0.1657358 -0.58532339 1.4168825 2890769
-0.15744145 -0.58381712 1.4189999 3680026
-0.1419 -0.58922279 1.419 3416348
-0.13509372 -0.58624113 1.4166 3023127
-0.12627327 -0.58640814 1.4175884 3022357
-0.1189257 -0.58922279 1.419 2956816
-0.71109056 -0.57677913 1.415 9271905
-0.70754737 -0.5719806 1.4178001 9729629
-0.34229144 -0.57857531 1.415 6041138
-0.33529457 -0.57633656 1.4183333 5124398
-0.32559031 -0.57529271 1.4189999 5190962
-0.31432977 -0.57481515 1.4175884 5061169
-0.30445758 -0.57474327 1.4189999 5060908
-0.29494926 -0.57503289 1.4189999 5125419
-0.28535604 -0.57475716 1.4175001 5125933
-0.27542287 -0.57394725 1.413 5388851
-0.2529943 -0.57058293 1.413 5388593
-0.24357429 -0.5726015 1.413 5518894
-0.23886432 -0.5726015 1.413 5256497
-0.22069719 -0.57192862 1.413 4797221
-0.21531428 -0.57192862 1.413 4469020
-0.20580456 -0.57435095 1.413 3942435
-0.19570531 -0.57423556 1.413 3811097
-0.18481143 -0.57237715 1.413 3876122
-0.17427218 -0.57452309 1.4167897 3678747
-0.16523471 -0.5746879 1.4185385 2432790
-0.1579241 -0.57570857 1.4189999 3811361
-0.13311572 -0.57638437 1.419 3088410
-0.12883615 -0.5775106 1.419 3023637
-0.1162229 -0.57030278 1.419 3218197
-0.7105372 -0.56520003 1.413 9271660
-0.70702142 -0.56534857 1.41675 9402723
-0.32700861 -0.56789148 1.413 5318959
-0.31421143 -0.56707287 1.416 4667695
-0.30343139 -0.56774575 1.416 4995884
-0.29367429 -0.56478786 1.4144999 4732205
-0.28560194 -0.56579804 1.4189999 4471085
-0.27462789 -0.56643498 1.4152499 5192760
-0.26564401 -0.56466168 1.413 5324594
-0.25464305 -0.56539738 1.4162002 5258541
-0.24529429 -0.56489938 1.4136 5388850
-0.23630746 -0.5649308 1.413 4995112
-0.22489239 -0.56447476 1.414 4470054
-0.21517979 -0.56427521 1.4148462 4075812
-0.20497778 -0.56504726 1.4160001 3877410
-0.19464286 -0.5657205 1.4159999 3352604
-0.18480428 -0.56519568 1.4163749 3221272
-0.17467217 -0.5659107 1.4189999 3024406
-0.1243314 -0.56760001 1.419 2367250
-0.11442097 -0.56534761 1.419 2824209
-0.71164769 -0.55150288 1.4169999 9662016
-0.70664799 -0.55506974 1.416 7887955
-0.29201999 -0.55847144 1.413 3744806
-0.28798291 -0.55712569 1.413 3547931
-0.27279574 -0.55704439 1.4145 3022888
-0.26510572 -0.55712575 1.413 3287589
-0.2550543 -0.55870098 1.4169999 3747877
-0.24459937 -0.55783689 1.4163333 3288605
-0.23513299 -0.55737042 1.413 3812899
-0.22612064 -0.55840003 1.4170001 3549471
-0.21568802 -0.55895096 1.419 3220513
-0.20541711 -0.55949152 1.419 3547164
-0.1973086 -0.55949152 1.419 3284762
-0.1729829 -0.55949152 1.419 2563858
-0.71198964 -0.54173905 1.415 9665117
-0.7076326 -0.5449878 1.4164286 9927517
-0.71349257 -0.53440416 1.4146 9468261
-0.7081486 -0.53516567 1.419 9534050
-0.7130037 -0.52516979 1.416 9468772
-0.7081486 -0.52976 1.419 9469025
-0.72130293 -0.51406288 1.413 9403234
-0.71401376 -0.51455379 1.4151002 9402976
-0.72130293 -0.5046429 1.413 9140838
-0.71663469 -0.50496715 1.4167501 9468004
-0.72139293 -0.49574858 1.4145 9206114
-0.71882057 -0.49486285 1.4166 9140068
-0.71599495 -0.48461401 1.4143333 10259315
-0.7235058 -0.47132283 1.4159999 7821910
-0.71820575 -0.47600386 1.4163334 8219483
-0.72588533 -0.4643679 1.416375 8480596
-0.71895999 -0.46624285 1.419 8284500
-0.7320686 -0.45485142 1.413 9269598
-0.72627115 -0.45516637 1.417125 9072729
-0.7320686 -0.44812292 1.413 9401951
-0.72690821 -0.4448736 1.4165295 9205341
-0.72514051 -0.43481845 1.416 9140065
-0.72462869 -0.42592147 1.416 9140324
-0.72538763 -0.415279 1.4157273 9336165
-0.72584444 -0.40485039 1.4147648 9598568
-0.7320686 -0.39294854 1.413 9532774
-0.7266317 -0.39458054 1.4150001 9663592
-0.73294574 -0.38366571 1.4159999 8484695
-0.7283228 -0.38575929 1.4174999 8351320
-0.73555076 -0.37519786 1.4171251 8415064
-0.72887039 -0.37119237 1.419 9795679
-0.73490661 -0.36466369 1.4151428 9271652
-0.72841996 -0.36488572 1.419 9336933
-0.73303825 -0.35533142 1.4154 9401956
-0.72977138 -0.35812855 1.419 9336414
-0.73532331 -0.3453196 1.4155713 9467749
-0.7349667 -0.33466902 1.4159999 9467753
-0.72977138 -0.33380285 1.419 9530471
-0.74014288 -0.32027999 1.413 10124902
-0.73581278 -0.32578465 1.4162307 9533801
-0.72887039 -0.32794666 1.419 10982256
-0.74031883 -0.31381029 1.4154 9532261
-0.73766565 -0.31691432 1.416 9597543
-0.74085718 -0.30491483 1.4154 9335400
-0.73787999 -0.30001709 1.419 9205598
-0.74148619 -0.29395017 1.4146364 9467747
-0.73787999 -0.29190859 1.419 9205855
-0.74503893 -0.28613943 1.4172 9271651
-0.74771756 -0.27441958 1.4164286 9205861
-0.7478379 -0.26513141 1.41675 9140837
-0.75090861 -0.25478861 1.413 9140836
-0.74729812 -0.25498372 1.4171537 9336674
-0.75373447 -0.24460043 1.4171537 9401956
-0.74753314 -0.24402939 1.4189999 9467237
-0.75431919 -0.23538639 1.4166921 9598561
-0.74869138 -0.23514855 1.419 9533026
-0.75303048 -0.22537048 1.4169999 9009509
-0.74869138 -0.22568858 1.419 9271396
-0.75286686 -0.21541372 1.4172 9205866
-0.75636482 -0.20505142 1.4165 8023900
-0.76167423 -0.19378287 1.413 6117180
-0.75848401 -0.19481488 1.4166 7035209
-0.76167428 -0.18570855 1.413 7890504
-0.75653416 -0.18452126 1.4176668 4998972
-0.74869138 -0.18244284 1.419 595217
-0.76475018 -0.17571186 1.413 4933958
-0.75662667 -0.1776886 1.4169999 2037025
-0.77362579 -0.062931426 1.416 9865085
-0.76974863 -0.064594291 1.413 9209451
-0.81588858 -0.051245719 1.416 6572660
-0.7805143 -0.051137149 1.413 11371625
-0.7749809 -0.055243049 1.4169999 9865590
-0.8137629 -0.045431431 1.4169999 9205886
-0.8060829 -0.043062858 1.413 13351863
-0.7805143 -0.043062855 1.413 12489369
-0.77504897 -0.044658929 1.415625 10455673
-0.81085718 -0.03648857 1.419 11381683
-0.80453056 -0.035036191 1.415 13878198
-0.7986815 -0.034315716 1.413 13811641
-0.78196198 -0.033665717 1.414 13483694
-0.77818286 -0.035615999 1.4166 10850692
-0.80348581 -0.02457143 1.4189998 10981531
-0.79453009 -0.02584143 1.4159999 13286069
-0.78408015 -0.025913967 1.4156668 13024690
-0.77687836 -0.024325715 1.4189999 11705490
-0.80437309 -0.017347755 1.4164286 9404285
-0.062165711 0.037840001 1.419 11706007
-0.058111429 0.037840001 1.419 11182487
-0.054603122 0.043338705 1.4140909 11181467
-0.71182138 -0.60460716 1.425 9272155
-0.70707148 -0.60528576 1.4250001 9402716
-0.35150003 -0.60257143 1.425 4601123
-0.10178575 -0.60257143 1.425 2824980
-0.095000006 -0.60257143 1.4249998 2757653
-0.71331429 -0.59660006 1.425 9468252
-0.35150006 -0.59850001 1.425 4731429
-0.15417144 -0.59280002 1.425 3417631
-0.14792855 -0.59171432 1.425 3481375
-0.11445238 -0.59352386 1.4250001 2562578
-0.10477141 -0.59660006 1.4250001 2693389
-0.096085727 -0.59822857 1.425 2824212
-0.71114278 -0.58492863 1.425 9402973
-0.70842862 -0.58085722 1.425 9599839
-0.15335716 -0.58628577 1.4250001 3613720
-0.1452143 -0.58492857 1.4249998 3350302
-0.1384286 -0.58221436 1.425 2826013
-0.12268577 -0.58411437 1.425 3087889
-0.11698574 -0.58574283 1.4250001 2824978
-0.70752382 -0.57542861 1.4249998 9730143
-0.32300001 -0.57271433 1.425 5388081
-0.30128571 -0.57542861 1.425 5322539
-0.29382148 -0.57610714 1.425 5256999
-0.15437502 -0.57508928 1.4250001 3417886
-0.1452143 -0.57475001 1.4250001 3416088
-0.13503571 -0.57508934 1.4250001 3219225
-0.12485717 -0.57542866 1.4250001 2957072
-0.11637501 -0.57508928 1.4250001 3152145
-0.70571429 -0.56864285 1.425 9140838
-0.285 -0.5632143 1.4250001 3418913
-0.27866665 -0.56547618 1.4249998 4078392
-0.2008571 -0.56185722 1.425 3546650
-0.19452383 -0.56276196 1.4249998 3350810
-0.18592858 -0.56185722 1.425 2761744
-0.17487757 -0.56379592 1.4250001 2761236
-0.16502859 -0.56755716 1.4250001 2761491
-0.1547143 -0.56999999 1.4249998 3352611
-0.14602858 -0.56945711 1.425 3219997
-0.13390477 -0.56999999 1.4249998 2957593
-0.12395242 -0.56728572 1.4250001 2891539
-0.11632653 -0.56573468 1.4250001 2890766
-0.1085714 -0.56864285 1.425 2628627
-0.70842862 -0.55371428 1.425 10452827
-0.2415714 -0.55642861 1.425 3017491
-0.23478575 -0.55642861 1.425 2822163
-0.22460712 -0.55710721 1.425 2561301
-0.2157857 -0.55778575 1.425 2824471
-0.20492855 -0.55914289 1.425 3087382
-0.19542861 -0.55914289 1.4249998 2956309
-0.18728571 -0.55914289 1.4249998 2564114
-0.17480001 -0.55860001 1.425 2366224
-0.11535715 -0.55914289 1.425 2628106
-0.71114278 -0.54285711 1.425 9730661
-0.70842862 -0.54285717 1.425 9730145
-0.71114278 -0.53742862 1.425 9534050
-0.70752382 -0.5329048 1.4249998 9992802
-0.71114278 -0.52521425 1.425 9534301
-0.70788574 -0.5244 1.425 9599834
-0.71114278 -0.51571435 1.4249998 9140575
-0.70625716 -0.51734287 1.425 9337190
-0.71494293 -0.5043143 1.425 9598558
-0.71820009 -0.49725714 1.425 9206101
-0.71657151 -0.48585719 1.425 9471358
-0.71928579 -0.47499999 1.4249998 8088664
-0.72290474 -0.46233335 1.4249998 8612951
-0.71928579 -0.4655 1.425 8415832
-0.72254288 -0.45491427 1.425 9007710
-0.71812254 -0.45444894 1.4250001 9074010
-0.72432655 -0.44591841 1.4250001 9205336
-0.71838099 -0.44695243 1.4249998 9270870
-0.722 -0.43564287 1.425 9204828
-0.71928579 -0.43292862 1.425 9205086
-0.72417146 -0.42559999 1.425 9402719
-0.72471428 -0.41528571 1.4249998 9401952
-0.72403574 -0.40578577 1.425 9467490
-0.72607148 -0.39492857 1.425 9269856
-0.73014289 -0.3827143 1.425 8280634
-0.72742862 -0.3827143 1.425 8346195
-0.73195243 -0.37728572 1.4249998 8875097
-0.72607148 -0.37185711 1.425 9401698
-0.73014289 -0.361 1.425 9271394
-0.72607148 -0.36914289 1.425 9336166
-0.73217863 -0.35421428 1.425 9204832
-0.73448575 -0.34525716 1.425 9205860
-0.73082143 -0.33521432 1.425 10055777
-0.73421431 -0.32300001 1.4250001 9468780
-0.72742862 -0.3284286 1.425 11907963
-0.74100012 -0.31350005 1.425 9335397
-0.73557144 -0.3175714 1.4249998 9137765
-0.74100012 -0.3067143 1.4249998 9138792
-0.74100012 -0.29495242 1.4249998 9139809
-0.74448979 -0.285 1.4250001 9074282
-0.74846429 -0.2755 1.425 9009761
-0.74642861 -0.26382858 1.425 9205608
-0.74479997 -0.25514287 1.425 9336422
-0.74697143 -0.24645714 1.425 9205350
-0.75185722 -0.2361429 1.425 9532773
-0.74759185 -0.23536739 1.4250001 9271395
-0.74805713 -0.22582856 1.425 9074269
-0.75185722 -0.21578573 1.425 8943206
-0.75620002 -0.20519999 1.425 6772814
-0.75547618 -0.19452386 1.4250001 7562053
-0.75457144 -0.18909524 1.4249998 5392955
-0.74914289 -0.18592855 1.425 1775889
-0.77447629 -0.053380951 1.4249998 9276519
-0.82242858 -0.046142861 1.425 4065602
-0.81835723 -0.042071432 1.425 8614254
-0.77492869 -0.046142861 1.425 10327150
-0.81632143 -0.034607146 1.425 9077640
-0.77737147 -0.034200005 1.425 9405044
-0.8150261 -0.025168834 1.4250001 8221820
-0.77589798 -0.025979593 1.4250001 10651774
-0.76407146 -0.021714291 1.425 10126728
-0.055371426 0.036371429 1.425 10918553
-0.70578492 -0.6128208 1.4355 9467748
-0.71141148 -0.6023829 1.431 9599582
-0.70681 -0.6042757 1.4355001 9730150
-0.085860007 -0.6037457 1.4309999 2627344
-0.075448252 -0.60357088 1.4316666 1775886
-0.063897662 -0.60469717 1.4359092 2429705
-0.055085003 -0.60525072 1.4370002 2035981
-0.047313474 -0.60529959 1.4370002 2035724
-0.71303743 -0.59682733 1.4336667 9599320
-0.7079556 -0.59614098 1.4356667 9664864
-0.10418288 -0.59390289 1.4309999 2561814
-0.094854869 -0.59502351 1.4309999 2824466
-0.085859999 -0.59556866 1.4309999 2824206
-0.074623495 -0.59517151 1.4333333 2365453
-0.065627947 -0.59766036 1.4356667 2298377
-0.056111433 -0.59943432 1.437 2494728
-0.046531431 -0.59943432 1.437 2364426
-0.71141148 -0.5873915 1.431 9402974
-0.70880294 -0.58452284 1.434 9468000
-0.14582574 -0.58057708 1.431 3612184
-0.11311715 -0.58466572 1.4309999 2366483
-0.10509817 -0.58469385 1.4320587 2955538
-0.094990596 -0.58425254 1.4345294 2890262
-0.085543491 -0.58470249 1.4333333 2496527
-0.076403961 -0.58513761 1.4365387 2496268
-0.70812142 -0.57496279 1.434 9009252
-0.14582574 -0.57785141 1.431 3939862
-0.13628571 -0.57376289 1.431 3218460
-0.1117543 -0.57785141 1.431 2823955
-0.10411119 -0.57484728 1.4315454 2824719
-0.094518445 -0.57482958 1.4364548 2824979
-0.085763812 -0.57525617 1.4370002 2693391
-0.079377137 -0.57753712 1.437 2627852
-0.70759171 -0.56473297 1.4348183 8151115
-0.28074861 -0.56422287 1.431 3416615
-0.27802289 -0.56422287 1.431 3286316
-0.21669436 -0.56149721 1.431 2759963
-0.18262289 -0.56149721 1.431 2694674
-0.16385198 -0.56369251 1.4315454 2761491
-0.15518643 -0.56463897 1.4324999 3155482
-0.14537144 -0.56609023 1.4322857 2957595
-0.13557258 -0.56743538 1.4350001 3022617
-0.12560098 -0.56338286 1.4334999 2627861
-0.11502514 -0.56367773 1.431 2758925
-0.10487633 -0.56487304 1.4334706 2432018
-0.095191747 -0.56598026 1.4370002 2235411
-0.084851421 -0.56932569 1.4369999 2824730
-0.71153426 -0.55311143 1.434 9927774
-0.70827889 -0.55744225 1.4346001 9796189
-0.2340257 -0.55837709 1.437 2689550
-0.22483367 -0.5552597 1.4336667 2559247
-0.21448353 -0.55660439 1.435154 2956055
-0.20509073 -0.55452424 1.43325 3546644
-0.19513486 -0.55401027 1.4327999 3217427
-0.18534647 -0.5541575 1.433625 2563606
-0.17587735 -0.55530739 1.4338 2365455
-0.16604811 -0.55691284 1.4350001 2431246
-0.1587543 -0.55837709 1.437 2299667
-0.12317143 -0.55837709 1.4369999 1838603
-0.11471999 -0.55857426 1.4339999 2297869
-0.10925715 -0.5585742 1.434 2429714
-0.71141148 -0.54514289 1.431 9795936
-0.70839679 -0.54533881 1.4335715 9795939
-0.19394611 -0.5454734 1.4370002 3810598
-0.71141148 -0.53969139 1.431 9730661
-0.70694286 -0.53468001 1.433 9730406
-0.70739907 -0.52588385 1.4330001 9730652
-0.22992 -0.52005708 1.437 1446163
-0.71294188 -0.5134086 1.4350001 9337184
-0.70768917 -0.51492691 1.4333999 9795684
-0.6952343 -0.51184571 1.437 9860426
-0.22855145 -0.51731998 1.437 1248270
-0.71382993 -0.50526142 1.4345001 9794910
-0.70892 -0.50774002 1.437 9729375
-0.71595323 -0.49476963 1.4336251 10456177
-0.71574861 -0.48536569 1.4348823 8546135
-0.71886295 -0.47514191 1.4350001 8219478
-0.71721494 -0.46449947 1.4327999 8875092
-0.71701074 -0.45625338 1.4343333 9335897
-0.72231442 -0.44292867 1.431 9401438
-0.7184605 -0.44533476 1.431857 9335644
-0.72231442 -0.43475145 1.431 9204579
-0.71860147 -0.43497717 1.4317499 9270882
-0.72423738 -0.42485401 1.4348183 9205344
-0.71932107 -0.42589942 1.437 9008735
-0.72432953 -0.41500857 1.4350001 9401697
-0.72432953 -0.40453336 1.4350001 9270623
-0.73172945 -0.39414859 1.4369999 8744284
-0.72681874 -0.396409 1.4352858 8941914
-0.732333 -0.38336244 1.4361429 9203288
-0.72636926 -0.38354218 1.4370002 8746330
-0.73185432 -0.37751144 1.431 9534048
-0.72519004 -0.37454644 1.434 9139805
-0.73049146 -0.36524573 1.4310001 9205614
-0.72736692 -0.36474603 1.4350001 9270626
-0.73230237 -0.35487524 1.4350001 9270376
-0.72800142 -0.35682002 1.4355001 9270113
-0.73290235 -0.34472105 1.4342728 9204579
-0.72807997 -0.34761709 1.437 9334621
-0.7306543 -0.33459714 1.434 10845021
-0.72746968 -0.33529031 1.4358 10386019
-0.73099494 -0.32401502 1.434 8943477
-0.74148715 -0.31310147 1.4324999 9073256
-0.73552662 -0.31573454 1.4346924 8743517
-0.74160641 -0.3052294 1.4344286 8746339
-0.73765993 -0.30519146 1.4370002 9205087
-0.74146855 -0.29626173 1.4321998 8877922
-0.73833716 -0.29402515 1.4346001 8811620
-0.74394351 -0.28417334 1.433 8877668
-0.74713933 -0.27513573 1.4355001 9074022
-0.74638504 -0.26494858 1.4353638 9532265
-0.74511921 -0.25370938 1.4344286 9205350
-0.74860859 -0.24497432 1.4370002 8877927
-0.74781996 -0.23457335 1.4319998 9402209
-0.75250578 -0.22124575 1.434 9008228
-0.74909288 -0.2260243 1.434 8942946
-0.75348765 -0.21365048 1.4350001 8084051
-0.75521564 -0.20481716 1.4337271 6968908
-0.75409764 -0.19575334 1.434 6114623
-0.74997717 -0.19296855 1.437 2627868
-0.83209151 -0.052005719 1.437 4661036
-0.82729149 -0.041912381 1.4350001 5053511
-0.78008568 -0.043794289 1.437 10523754
-0.83326447 -0.033627756 1.4370002 4730414
-0.82620746 -0.034715917 1.4335715 5717322
-0.78008568 -0.035582859 1.437 8946024
-0.77881908 -0.034567621 1.433 9469796
-0.70644188 -0.61194479 1.4450001 9533539
-0.04122857 -0.61018288 1.443 2232332
-0.037179999 -0.61145151 1.446 1904905
-0.70488495 -0.6041894 1.4455715 9468005
-0.052295238 -0.60276765 1.4450001 2494987
-0.044363812 -0.60426986 1.4456667 2298378
-0.037259996 -0.60720003 1.449 1708553
-0.7056483 -0.59441459 1.4435453 9467742
-0.066610478 -0.59349531 1.447 2234126
-0.056161042 -0.59595799 1.4479092 2364426
-0.047985148 -0.59786975 1.4477999 2364431
-0.7064302 -0.58560681 1.4446363 9664610
-0.072621725 -0.58482856 1.4441999 2627595
-0.068080008 -0.58696002 1.449 3086086
-0.70719689 -0.57606757 1.4451818 8153179
-0.094367623 -0.57261902 1.443 2497298
-0.08222381 -0.57512003 1.447 2562321
-0.075360879 -0.57603204 1.4448463 2234897
-0.069000013 -0.57407999 1.449 2824210
-0.7060408 -0.56491345 1.4447143 9467487
-0.153072 -0.56163889 1.4454 2365202
-0.14399029 -0.56218857 1.4454 2234384
-0.13457313 -0.5619542 1.4448 1905939
-0.1291829 -0.56070858 1.443 2101525
-0.1044457 -0.56070858 1.443 2298642
-0.094104134 -0.5631066 1.4436666 2170124
-0.08619348 -0.56676251 1.4464285 2038294
-0.71325433 -0.55658573 1.443 9796450
-0.70768571 -0.55623496 1.4456668 9534304
-0.22407921 -0.55410045 1.4472858 3414051
-0.21652192 -0.55368477 1.4450001 4007974
-0.18140569 -0.55246288 1.443 3024147
-0.17344573 -0.55227768 1.4454 3088409
-0.16404857 -0.55418289 1.4475001 2957333
-0.1560743 -0.55728 1.446 2759443
-0.14168 -0.55659992 1.449 3610637
-0.13524 -0.55613995 1.449 2890252
-0.12628286 -0.55609429 1.4464999 2889229
-0.11492572 -0.5577085 1.4464285 2428167
-0.10596666 -0.55781335 1.4450001 1967625
-0.097574294 -0.55795997 1.443 2165509
-0.08795429 -0.55795997 1.443 1707530
-0.70784688 -0.54672402 1.446 9467999
-0.2233091 -0.54522556 1.4490002 3546910
-0.21463636 -0.54495192 1.446 3877409
-0.20468511 -0.54486018 1.4439477 4007964
-0.19569831 -0.54256803 1.443 3679777
-0.18559468 -0.54612464 1.4448752 3482646
-0.17676857 -0.54767895 1.4478 3548695
-0.70569569 -0.53356647 1.443 9533793
-0.224112 -0.53709602 1.449 3874583
-0.21606858 -0.53583425 1.4490001 4073758
-0.20723642 -0.53653997 1.4482501 4008741
-0.19800344 -0.53664798 1.4477999 3746081
-0.70571065 -0.52496684 1.4457273 9927777
-0.69276005 -0.52164012 1.449 12102044
-0.68724012 -0.52164012 1.449 13544602
-0.70527124 -0.51455492 1.4437059 9860707
-0.69540447 -0.51360703 1.4436667 10191460
-0.68676221 -0.51539207 1.4457691 11903103
-0.71272248 -0.50279921 1.4447143 11046776
-0.70678061 -0.50637883 1.4472001 10980462
-0.6948337 -0.50605595 1.4456668 9862763
-0.68612295 -0.50737435 1.4437499 9075053
-0.71199435 -0.49512979 1.4464285 8611681
-0.70932013 -0.49818 1.449 8935263
-0.71380389 -0.48433462 1.4456667 8350039
-0.70913142 -0.48649719 1.443 8349784
-0.71711713 -0.47486573 1.44525 8285016
-0.71636689 -0.46472916 1.4454 8940895
-0.72024286 -0.45170283 1.446 9204575
-0.71743286 -0.45673719 1.4445 9074270
-0.72068733 -0.44580245 1.4472858 9597536
-0.72020382 -0.43533242 1.4450001 9401696
-0.71660572 -0.43455997 1.447 9205085
-0.72066188 -0.42386863 1.4450001 9008478
-0.72199899 -0.41532001 1.4439999 9336420
-0.72219062 -0.40499589 1.4446363 8877156
-0.7338686 -0.39167142 1.443 7104084
-0.72553432 -0.39453146 1.4455715 8151122
-0.72328883 -0.38520569 1.4456668 9467744
-0.71737719 -0.38205141 1.443 9336162
-0.72255462 -0.37484959 1.4442002 9270370
-0.7243188 -0.36520734 1.4447144 9401440
-0.73111999 -0.35181719 1.443 9596257
-0.72726679 -0.35491306 1.4456667 9204577
-0.73111993 -0.34357145 1.443 8613472
-0.7284866 -0.344969 1.4455713 8613218
-0.72544968 -0.33533031 1.4454 11438445
-0.71759999 -0.33671999 1.449 11504487
-0.73117608 -0.32459658 1.4441999 9074028
-0.72846097 -0.32615715 1.4450001 9469565
-0.73368001 -0.31427774 1.4448 8547159
-0.73635435 -0.30563346 1.4455715 9204310
-0.74303055 -0.29409719 1.443 8942692
-0.73901248 -0.29496095 1.4450001 8877153
-0.74298233 -0.28453246 1.4451818 9074276
-0.73968011 -0.28566 1.449 9140067
-0.74286991 -0.27444637 1.4456668 9335141
-0.74440074 -0.26587874 1.4456667 9466728
-0.75036001 -0.25012001 1.443 8812398
-0.74466866 -0.2538324 1.4450001 9074020
-0.74741644 -0.24520409 1.4464285 8615015
-0.75050402 -0.23456457 1.4454 9336674
-0.74772769 -0.23762095 1.4450001 9205346
-0.75191712 -0.22654143 1.446 8680808
-0.75384319 -0.21621272 1.4450001 7822156
-0.75235713 -0.20549086 1.4441999 7102793
-0.74669534 -0.2024781 1.443 4083514
-0.75173432 -0.1978972 1.443 3356978
-0.83556575 -0.043977145 1.443 4203300
-0.78367442 -0.044102859 1.447 8879717
-0.78229624 -0.036750477 1.447 7753041
-0.017915236 0.024801908 1.447 10585977
-0.70592242 -0.62238365 1.455 9270881
-0.70740712 -0.61594999 1.455 9599332
-0.031871434 -0.61387146 1.455 1906693
-0.02494286 -0.61525708 1.455 3020038
-0.70315105 -0.60575515 1.455 9270628
-0.69840002 -0.6055572 1.455 9466727
-0.063742854 -0.60140002 1.455 2626572
-0.04249524 -0.60232383 1.455 2757640
-0.03464286 -0.6055572 1.455 2298632
-0.70579046 -0.59585714 1.455 9336927
-0.69840002 -0.59862858 1.455 9270623
-0.062819049 -0.59493333 1.455 2757133
-0.054042857 -0.59308571 1.455 2365194
-0.045621984 -0.59415162 1.455 2233352
-0.03695238 -0.59631902 1.455 2233100
-0.70473462 -0.58477151 1.455 8811608
-0.064750656 -0.58451945 1.455 2626573
-0.055428568 -0.58477151 1.455 2626826
-0.047114287 -0.58477151 1.455 2691848
-0.70421994 -0.57590282 1.455 8740687
-0.69840002 -0.57922858 1.455 8598068
-0.083142847 -0.57091433 1.455 2169362
-0.074828573 -0.57230002 1.455 2365453
-0.065128572 -0.57526934 1.455 2299663
-0.055428568 -0.57507139 1.455 2103309
-0.047422223 -0.57430154 1.455 2168328
-0.036028575 -0.57091433 1.455 1970437
-0.70486665 -0.56583339 1.455 9534561
-0.1482714 -0.56260002 1.455 2429710
-0.083142847 -0.56814277 1.455 1841934
-0.072057143 -0.56814277 1.455 2233877
-0.066514283 -0.5667572 1.455 2233101
-0.70671427 -0.55539429 1.455 9140575
-0.2272571 -0.55428571 1.455 3476504
-0.16489998 -0.55151433 1.455 2893084
-0.15489207 -0.55459362 1.455 3219224
-0.14624614 -0.55492526 1.455 3283734
-0.13500814 -0.55270207 1.455 3284756
-0.1242524 -0.55428571 1.455 3218199
-0.11560815 -0.5558694 1.455 2822152
-0.71225709 -0.54597151 1.455 9664872
-0.70671421 -0.54517955 1.455 9533026
-0.2272571 -0.54597151 1.455 3937051
-0.19307619 -0.54273814 1.455 3417884
-0.18370612 -0.54161638 1.455 3286811
-0.17404573 -0.54403144 1.455 2828055
-0.16489996 -0.54550952 1.455 2828316
-0.1552 -0.5445857 1.455 3351835
-0.14549997 -0.5445857 1.455 3482139
-0.13441429 -0.5445857 1.455 3154457
-0.12629797 -0.54517955 1.455 3088412
-0.70671433 -0.5348857 1.455 9861983
-0.2300286 -0.53350002 1.455 3021326
-0.22408979 -0.53409386 1.455 3547921
-0.21432382 -0.53350002 1.455 4074524
-0.20473927 -0.53488576 1.455 4073509
-0.1945543 -0.5346086 1.455 3417889
-0.18429999 -0.53488582 1.455 3417880
-0.17460001 -0.53488576 1.455 3155734
-0.16905709 -0.5348857 1.455 2828052
-0.15312144 -0.53557861 1.455 3287060
-0.14569795 -0.53607351 1.455 3745047
-0.13649285 -0.53627151 1.455 3221013
-0.70394284 -0.52657145 1.455 10125159
-0.69562858 -0.52657151 1.455 13280892
-0.23002858 -0.52564764 1.455 1511188
-0.22670284 -0.52490854 1.455 2363929
-0.21455479 -0.52634043 1.455 3877670
-0.20468977 -0.52736324 1.455 3876386
-0.19781072 -0.52587855 1.455 3876637
-0.18476188 -0.52703327 1.455 3679258
-0.17460001 -0.52934277 1.455 3286551
-0.14688569 -0.52934277 1.455 3547166
-0.2300286 -0.5182572 1.455 721929
-0.2272571 -0.5182572 1.455 1707023
-0.70671421 -0.50400412 1.455 8350815
-0.69285709 -0.50440001 1.455 8283994
-0.71225709 -0.49331427 1.455 8480348
-0.70948571 -0.49470001 1.455 8414556
-0.71502852 -0.48407626 1.455 8415319
-0.70948571 -0.48777151 1.455 8480092
-0.71724576 -0.47613144 1.455 8677975
-0.71687621 -0.46190479 1.455 9268571
-0.72057152 -0.45451429 1.455 9138273
-0.72057152 -0.44620004 1.455 9269601
-0.71687621 -0.44158092 1.455 9073252
-0.72057152 -0.43234289 1.455 9597277
-0.7159524 -0.43511429 1.455 9007970
-0.72168005 -0.42513713 1.455 9139043
-0.71641433 -0.4281857 1.455 9073262
-0.72264993 -0.41432858 1.455 9466722
-0.72334272 -0.4046286 1.455 8217940
-0.72334278 -0.39492857 1.455 9270108
-0.72149533 -0.3852286 1.455 9270366
-0.71780002 -0.3852286 1.455 9205091
-0.72057152 -0.37691429 1.455 9138529
-0.72519046 -0.36398098 1.455 9204834
-0.72796184 -0.35474285 1.455 9073245
-0.72576785 -0.34365714 1.455 9071189
-0.72472858 -0.33395714 1.455 12956805
-0.71537507 -0.33568931 1.455 11115131
-0.73165721 -0.32287139 1.455 8085840
-0.72703809 -0.32795241 1.455 9206394
-0.73332006 -0.3148343 1.455 8416857
-0.73904771 -0.30485713 1.455 9072995
-0.73858577 -0.29654285 1.455 8876891
-0.74274278 -0.27575713 1.455 9139042
-0.74440569 -0.26494861 1.455 9204836
-0.74551427 -0.25497144 1.455 9139041
-0.75105721 -0.2411143 1.455 8943205
-0.7458607 -0.24631071 1.455 9138280
-0.75105721 -0.23280001 1.455 8877923
-0.74828571 -0.23418573 1.455 8681054
-0.75493717 -0.2239314 1.455 7693925
-0.75327432 -0.21450858 1.455 7494727
-0.75105721 -0.2078571 1.455 5270087
-0.78708571 -0.052657139 1.455 7167060
-0.84251428 -0.04988572 1.455 4200486
-0.78477621 -0.044342864 1.455 6574411
-0.023557145 0.019400001 1.455 10323327
-0.016628571 0.019400001 1.455 10783617
-0.70350635 -0.62169039 1.461 9467494
-0.69499016 -0.62295908 1.4648182 9467739
-0.01816286 -0.62033153 1.467 2364166
-0.70407367 -0.6156736 1.46175 9467236
-0.69712871 -0.61631721 1.4629999 9729636
-0.024746669 -0.614362 1.4616667 2299143
-0.01956 -0.61614001 1.467 2299655
-0.70615005 -0.60318434 1.461 9139813
-0.69769096 -0.60570461 1.4634001 9795167
-0.032002859 -0.60388005 1.461 2494732
-0.024874806 -0.60641307 1.4659091 2037005
-0.01816286 -0.60356581 1.467 1840136
-0.70371509 -0.59518361 1.461 9467744
-0.69758195 -0.59454387 1.4619999 9598815
-0.041742861 -0.59274858 1.461 2691847
-0.035764765 -0.59494954 1.4629999 2168073
-0.023700006 -0.59814572 1.464 2561296
-0.019479999 -0.59692287 1.461 2102284
-0.70222205 -0.58618766 1.4619999 8677458
-0.69817722 -0.58529866 1.46325 8150355
-0.042299431 -0.58495665 1.461 2233096
-0.038561143 -0.58456457 1.467 1905415
-0.70232326 -0.57386965 1.463182 9730652
-0.6985715 -0.57841718 1.467 10190192
-0.076528579 -0.57048571 1.461 2234128
-0.061222859 -0.57187712 1.461 2495758
-0.055657145 -0.57048571 1.461 1972497
-0.043969147 -0.57716465 1.461 2036999
-0.036177147 -0.57605147 1.461 1840646
-0.70297557 -0.56422114 1.4628003 9533280
-0.082094297 -0.56631148 1.461 1839626
-0.075137146 -0.56631142 1.461 2166540
-0.068180002 -0.56492001 1.461 2166028
-0.052874289 -0.56770289 1.461 1972236
-0.70317113 -0.55525106 1.4633999 9401697
-0.1224457 -0.55239713 1.461 3087643
-0.11688 -0.55239719 1.461 2758154
-0.70476401 -0.5455271 1.4646924 9468004
-0.6985715 -0.54768002 1.467 9205084
-0.16558 -0.54404861 1.461 2893854
-0.12314142 -0.54474437 1.461 3023638
-0.11827145 -0.54544002 1.461 2562827
-0.70480728 -0.53610426 1.4640001 9926749
-0.69761533 -0.53298092 1.465 11434581
-0.22402 -0.53152567 1.461 3351072
-0.19340861 -0.53152567 1.461 3483936
-0.1892343 -0.53152567 1.461 3352605
-0.16461669 -0.53537887 1.4610002 3024661
-0.15508105 -0.53456157 1.4610001 3417877
-0.14303885 -0.53375202 1.461 3220506
-0.13427289 -0.5347724 1.4610001 3482646
-0.12477258 -0.53474277 1.4621999 3088917
-0.11674897 -0.53501636 1.4618571 2299657
-0.70406288 -0.52874291 1.461 10517103
-0.69156003 -0.52563715 1.464 12691067
-0.68739432 -0.52253139 1.467 11049852
-0.22382124 -0.52436984 1.4609998 3285540
-0.21601927 -0.52213359 1.461 4074281
-0.20562223 -0.52255875 1.461 3548959
-0.19418162 -0.52348638 1.461 3680284
-0.18452483 -0.52403343 1.4610002 3548954
-0.17543811 -0.52492577 1.4619999 3483671
-0.16562216 -0.52470219 1.4613751 3090458
-0.15452929 -0.52483577 1.46175 3417119
-0.14500289 -0.52564287 1.4640001 3351840
-0.13596328 -0.52650166 1.4652854 3024152
-0.12472382 -0.52775812 1.466 2957330
-0.11596285 -0.52811998 1.467 1971716
-0.69228435 -0.51345003 1.467 8675669
-0.68738008 -0.51727712 1.464 9466215
-0.23097721 -0.51621997 1.461 460550
-0.22507392 -0.51493925 1.4652857 2826261
-0.21501298 -0.51572371 1.464273 3680292
-0.20496003 -0.51448578 1.464 3615006
-0.19458598 -0.51488978 1.4642308 3352095
-0.18446337 -0.51571387 1.4654999 3221787
-0.1750239 -0.51618087 1.4670001 3483168
-0.16626035 -0.51740324 1.4656667 3482395
-0.1555486 -0.51787436 1.467 3219995
-0.14600147 -0.51903862 1.467 3351063
-0.13831715 -0.51973718 1.467 3155230
-0.11743659 -0.51649827 1.461 2888967
-0.71254289 -0.50017709 1.467 8151896
-0.7059772 -0.50360447 1.4643333 8218456
-0.6985715 -0.50576568 1.467 8283995
-0.22633719 -0.50856 1.467 3154457
-0.2123657 -0.50716281 1.467 3877669
-0.20864005 -0.5076285 1.467 3811879
-0.1956 -0.50856 1.467 3418910
-0.71249038 -0.49544916 1.4646 8218201
-0.70974863 -0.49458861 1.467 8284247
-0.71428216 -0.4846473 1.4653636 8612187
-0.70855111 -0.48420987 1.467 8612692
-0.72075999 -0.47030291 1.461 9137247
-0.71635348 -0.47535259 1.4646925 8874585
-0.70905006 -0.47572717 1.467 8809817
-0.72084284 -0.46428859 1.464 9399903
-0.7169829 -0.4651463 1.4658 9465435
-0.72075999 -0.45499715 1.461 8941410
-0.7171486 -0.45484766 1.4649999 9531999
-0.72075999 -0.44804001 1.461 8942178
-0.71652895 -0.44616577 1.465 9269853
-0.71527594 -0.4347437 1.4644287 9269863
-0.72187316 -0.42243773 1.461 9204324
-0.7160182 -0.4240348 1.4637272 9401189
-0.7216025 -0.41513062 1.4627143 9137764
-0.71624297 -0.41466859 1.466 8349273
-0.72208625 -0.40512988 1.4631817 8086354
-0.71743292 -0.40587002 1.467 9466202
-0.72195709 -0.39541829 1.4640001 9270885
-0.7212286 -0.38510457 1.4635714 9204575
-0.71739435 -0.38382 1.4655 9139038
-0.72242159 -0.37423047 1.4649999 8942688
-0.72576874 -0.36428002 1.4655002 9335650
-0.72645378 -0.35421365 1.4651539 8613984
-0.72321582 -0.34664434 1.46175 8678238
-0.71581721 -0.34445667 1.4659091 10584933
-0.72215146 -0.33116001 1.461 9533561
-0.71586525 -0.33560115 1.4658 8807780
-0.73189151 -0.32142007 1.461 8349015
-0.72666579 -0.32591051 1.4645001 7756888
-0.73283321 -0.31371263 1.4640001 8744536
-0.72930861 -0.31854859 1.467 8481369
-0.74023998 -0.30472285 1.461 9007458
-0.73539722 -0.30483752 1.4644287 8941915
-0.74163145 -0.2922 1.461 9139818
-0.73568577 -0.29517671 1.4651539 8942174
-0.74170631 -0.28503376 1.4628 9008484
-0.73759776 -0.28622064 1.4646 8876641
-0.74236465 -0.275736 1.4652001 8942692
-0.74372703 -0.2650426 1.4629999 8942690
-0.74311537 -0.25513819 1.463182 8942434
-0.74382573 -0.24414717 1.4635 8942438
-0.74716944 -0.23512004 1.4631817 8351827
-0.75239623 -0.22572003 1.4629999 6902348
-0.74886858 -0.22494005 1.467 7164213
-0.75256407 -0.21587022 1.4609998 7428940
-0.74679178 -0.21447301 1.4623332 5787712
-0.7513715 -0.20871431 1.461 4936524
-0.74682289 -0.20900004 1.4629999 3285302
-0.79055715 -0.054374285 1.464 5717569
-0.78622407 -0.050814856 1.4658 4994094
-0.77541429 -0.050297141 1.467 7694690
-0.76563436 -0.050297141 1.467 8680819
-0.78351527 -0.0455181 1.4629999 5713973
-0.76455915 -0.044596925 1.4633079 8944249
-0.6925438 -0.6228686 1.473 9402460
-0.016834291 -0.62006289 1.473 2233353
-0.69768763 -0.61445147 1.473 9795174
-0.018237146 -0.61375004 1.473 1644038
-0.69862288 -0.60463142 1.473 9533535
-0.03086286 -0.60042292 1.473 1185289
-0.027355712 -0.60322863 1.473 2364686
-0.016273145 -0.60322863 1.473 2167303
-0.69862288 -0.59481144 1.473 8417364
-0.03366857 -0.59668189 1.473 2103815
-0.024549998 -0.59691578 1.473 2298384
-0.018237146 -0.59481144 1.473 1709319
-0.69862288 -0.58779716 1.473 8349522
-0.01515086 -0.58639425 1.473 1971973
-0.0084171426 -0.58779716 1.473 2101775
-0.70142859 -0.57517147 1.473 9926755
-0.70142859 -0.56535149 1.473 9533025
-0.70142859 -0.55553144 1.473 9270627
-0.69862288 -0.55553144 1.473 9598049
-0.70142859 -0.5443086 1.473 9271120
-0.69792145 -0.54711431 1.473 9139547
-0.70142859 -0.53869718 1.473 9137996
-0.69862288 -0.53869718 1.473 9071950
-0.13257003 -0.52396715 1.473 3023637
-0.12541544 -0.52466863 1.4729999 3088145
-0.11643715 -0.52607143 1.473 2102532
-0.69441438 -0.51064003 1.473 8742482
-0.22352187 -0.51157528 1.473 3549475
-0.21744284 -0.51204288 1.473 3746093
-0.20341431 -0.51064003 1.473 3418403
-0.19359431 -0.51176232 1.473 3483936
-0.18587857 -0.51134145 1.473 3484695
-0.17595837 -0.51184255 1.4730002 3222295
-0.16497597 -0.51456797 1.473 4007448
-0.15487543 -0.51344573 1.4729999 3416604
-0.14421372 -0.51456803 1.4729998 3023130
-0.13677858 -0.51695287 1.473 3088922
-0.1234514 -0.51905721 1.473 3152654
-0.70563716 -0.50432718 1.473 8153686
-0.69862288 -0.50643146 1.473 8546136
-0.22405632 -0.50583029 1.4730002 4072738
-0.21519828 -0.50446755 1.4729999 4072995
-0.20481716 -0.50502867 1.473 3549729
-0.19499715 -0.50502867 1.4729999 3745822
-0.18517713 -0.50502867 1.473 3745822
-0.17711069 -0.50537938 1.473 3090714
-0.14589711 -0.50783432 1.473 2891542
-0.71265137 -0.49661139 1.473 8349784
-0.7092846 -0.49436682 1.473 8481110
-0.22165141 -0.49801424 1.473 3547682
-0.2143134 -0.49617979 1.4729998 3286052
-0.2076229 -0.49661142 1.473 3156252
-0.19359429 -0.4994171 1.473 3218969
-0.70633858 -0.48609003 1.473 8875089
-0.71452188 -0.47229525 1.473 9334621
-0.70891047 -0.47697142 1.473 8744542
-0.71385384 -0.46494696 1.4730002 9269341
-0.7154572 -0.45452571 1.473 9401692
-0.7154572 -0.44891429 1.473 9597534
-0.7154572 -0.43348286 1.473 9401441
-0.71433485 -0.42422405 1.473 9139300
-0.71335286 -0.41454428 1.473 8214103
-0.72106862 -0.40121719 1.473 9532773
-0.71714061 -0.40570632 1.473 9532513
-0.72106862 -0.39560568 1.473 9204834
-0.71756148 -0.39630711 1.473 9269599
-0.72106862 -0.38718861 1.473 9204316
-0.71686006 -0.38531807 1.473 9204319
-0.72162974 -0.37372118 1.473 9204577
-0.71826291 -0.37877151 1.473 9138539
-0.72387427 -0.3647429 1.473 9466215
-0.72293901 -0.35632572 1.473 8743774
-0.71732765 -0.35164952 1.473 9727083
-0.72106862 -0.33388001 1.473 8409957
-0.71358663 -0.33762094 1.473 8020574
-0.72724116 -0.32490173 1.473 7693144
-0.7322914 -0.31424001 1.473 9006428
-0.72892463 -0.3164846 1.473 8612444
-0.7322914 -0.30442002 1.473 8679262
-0.72948581 -0.30441999 1.473 8678753
-0.73416191 -0.29460001 1.473 8942176
-0.74070859 -0.2805714 1.473 9271137
-0.73790288 -0.28618288 1.473 9138779
-0.74164385 -0.27496001 1.473 8942173
-0.7435143 -0.26514 1.473 8615012
-0.74211144 -0.25532001 1.473 8876640
-0.73790288 -0.2525143 1.473 9532002
-0.742392 -0.24521942 1.473 8876893
-0.74632001 -0.23567998 1.473 6316366
-0.74912572 -0.22445714 1.473 8151867
-0.74912572 -0.21744284 1.473 6185271
-0.79401708 -0.05611429 1.473 4533818
-0.78560001 -0.053308565 1.473 5720370
-0.77531242 -0.053308565 1.473 7826787
-0.69064635 -0.63222986 1.4840001 8943193
-0.68686229 -0.63308316 1.4859999 9140059
-0.69300508 -0.62453085 1.4825 9336923
-0.68780577 -0.62412 1.4859999 8944220
-0.012737145 -0.62412 1.4859999 2036998
-0.69629854 -0.61565405 1.4832727 9729376
-0.014603176 -0.61668885 1.4840001 1971205
-0.69629806 -0.60449624 1.4829999 8745052
-0.013155557 -0.60327619 1.48 1970948
-0.69629806 -0.5946095 1.4829999 8479558
-0.033476193 -0.59446669 1.48 2167813
-0.025736671 -0.59476668 1.4807501 1970950
-0.014095239 -0.59481907 1.48 1644293
-0.0084571429 -0.59481901 1.48 2298890
-0.70194674 -0.58271903 1.4815 9862495
-0.69700485 -0.58501786 1.4837499 9271641
-0.032888893 -0.58730155 1.48 1775879
-0.02537143 -0.58636189 1.48 1513480
-0.015348149 -0.58604866 1.48 2036743
-0.70195055 -0.57483619 1.4830002 9991778
-0.69771242 -0.57458663 1.4859999 9204829
-0.70195162 -0.5655151 1.4834287 9794661
-0.69771242 -0.56467998 1.4859999 9073754
-0.2349295 -0.56892568 1.4859999 3409941
-0.70194292 -0.55817151 1.48 9532766
-0.69735813 -0.55484569 1.48525 9270365
-0.70195311 -0.54648632 1.4840001 9204314
-0.69872224 -0.54605275 1.4842857 9400925
-0.69841814 -0.53457904 1.483 12490601
-0.13249519 -0.52152377 1.48 3349780
-0.12826665 -0.52152377 1.48 3087635
-0.69677085 -0.51363683 1.4829999 8874073
-0.1719619 -0.51024759 1.48 3090962
-0.16491431 -0.51165718 1.48 3221270
-0.15504764 -0.51024759 1.48 3416090
-0.14471109 -0.51024759 1.48 2891799
-0.13475046 -0.51391244 1.4799999 3022610
-0.12557119 -0.51499552 1.4814998 2759697
-0.11864001 -0.51834095 1.483 2233605
-0.71039999 -0.50320005 1.48 8283735
-0.70382738 -0.50340825 1.4819999 8414808
-0.69791514 -0.50606745 1.4842857 8808287
-0.23116191 -0.506019 1.48 3019285
-0.22758555 -0.50316572 1.4824001 3414816
-0.20297144 -0.50179052 1.48 3286557
-0.1846476 -0.50179052 1.48 2890775
-0.17384125 -0.50366992 1.48 2628886
-0.16463915 -0.50433147 1.4804612 2825749
-0.15504763 -0.50460958 1.48 3022356
-0.1449015 -0.50423837 1.4812855 3022101
-0.13441263 -0.50511146 1.4856249 2890773
-0.12454098 -0.50524002 1.4859999 2169368
-0.71039999 -0.4975619 1.48 8480856
-0.70411372 -0.49537671 1.4809228 8677466
-0.69912672 -0.49412858 1.4845001 8874846
-0.22561641 -0.49409598 1.4805998 2890776
-0.21626124 -0.4917224 1.4800001 2694683
-0.20409907 -0.49464887 1.4799998 2825754
-0.19457905 -0.49490857 1.4804999 3087887
-0.18488261 -0.49536496 1.4818749 3088914
-0.17495807 -0.49524 1.4814998 2759700
-0.16555052 -0.49552533 1.4832 2825238
-0.15437716 -0.49592686 1.4843999 2561810
-0.14501716 -0.49599484 1.4849091 2626834
-0.13444763 -0.49533334 1.4859999 2496528
-0.12454096 -0.49533334 1.4859999 2429201
-0.71044958 -0.48259625 1.4859999 9137753
-0.70554882 -0.48561037 1.4838182 8940890
-0.22524571 -0.48501176 1.4856 2496538
-0.2154831 -0.48560116 1.4855385 2693148
-0.20544694 -0.48648244 1.4849091 2562069
-0.19417068 -0.48797411 1.4859999 3481633
-0.18504238 -0.48790336 1.4859999 3416088
-0.17478192 -0.48896477 1.4859999 2891539
-0.16699809 -0.48967239 1.4859999 3087892
-0.1528457 -0.48967239 1.4859999 2234384
-0.14152379 -0.48967239 1.4859999 2627116
-0.12312575 -0.48967239 1.4859999 1773577
-0.711043 -0.47455326 1.4819999 8745054
-0.70691139 -0.47622764 1.4859999 9007190
-0.22360763 -0.47622758 1.4859999 2758940
-0.21511622 -0.47552001 1.4859999 2496280
-0.71326804 -0.46553493 1.485 9072989
-0.70761901 -0.46702862 1.4859999 9007711
-0.71590251 -0.45502269 1.4843999 9335392
-0.71702605 -0.44566986 1.4839998 9203815
-0.71486646 -0.4351342 1.4834286 9269860
-0.71390104 -0.42532194 1.4853333 8020564
-0.71488714 -0.41462857 1.4851428 9138781
-0.71701127 -0.40478981 1.4826666 9204321
-0.71713293 -0.39581764 1.483 9203813
-0.7179454 -0.38531807 1.482 9204066
-0.72219557 -0.37333462 1.4829999 9334879
-0.71844131 -0.37688825 1.4840001 9203292
-0.72341746 -0.36495921 1.483 9138014
-0.72264761 -0.35850289 1.482 8875358
-0.71834362 -0.3549318 1.4836 9795683
-0.7160815 -0.34532422 1.4836 8812128
-0.72342932 -0.33345446 1.4836 7822169
-0.7179696 -0.33731687 1.4840001 7889244
-0.72696215 -0.3255592 1.4825715 8348757
-0.73019814 -0.31496099 1.483 8612711
-0.72743243 -0.31701338 1.4859999 8808544
-0.73226613 -0.30430046 1.4851428 8679012
-0.73666561 -0.29345578 1.4834284 9138784
-0.74152637 -0.28172317 1.4839998 9335903
-0.73632234 -0.28430447 1.4846153 9138271
-0.74209428 -0.27413034 1.4819999 9138786
-0.73627758 -0.27491 1.4859999 8941155
-0.74232525 -0.2648541 1.4823999 8942437
-0.7375412 -0.26525608 1.4859999 8876640
-0.74211425 -0.25653335 1.48 9007455
-0.73867244 -0.25422859 1.4829999 8877149
-0.74339128 -0.24360678 1.4833333 7167305
-0.73867238 -0.24716665 1.483 7956811
-0.75007617 -0.23351431 1.4859999 6181444
-0.74808639 -0.23445527 1.4829999 5592648
-0.75149143 -0.22502288 1.4859999 7169088
-0.74986672 -0.22693336 1.48 7759169
-0.74986672 -0.21706671 1.48 4213791
-0.80060953 -0.0592 1.48 6438967
-0.69058287 -0.63090289 1.492 9074776
-0.68535614 -0.63416952 1.4929999 9205599
-0.69200385 -0.62237722 1.492 9205589
-0.68616825 -0.62523025 1.4929999 9271394
-0.69242054 -0.6149503 1.4936154 9401184
-0.68590832 -0.6171689 1.4931666 9269855
-0.69165838 -0.60532069 1.4943331 8020814
-0.69179654 -0.59593773 1.4933999 9400930
-0.68798858 -0.59201336 1.4966666 9533025
-0.34643558 -0.59769648 1.499 5906465
-0.33691812 -0.59317577 1.4989998 5446690
-0.32644895 -0.59198612 1.499 4462876
-0.69240713 -0.58470672 1.4928749 9598558
-0.68724692 -0.58541071 1.4934 9664347
-0.32549721 -0.58532387 1.499 5444372
-0.3197867 -0.58532381 1.499 4985363
-0.30360696 -0.58342034 1.499 4262149
-0.29637372 -0.58532387 1.4989998 3279634
-0.28837901 -0.58389622 1.499 3212309
-0.25268859 -0.58246863 1.499 2754574
-0.69445336 -0.57641131 1.4946923 9466464
-0.311221 -0.57104772 1.499 5774872
-0.30551049 -0.57533044 1.499 5247501
-0.29608819 -0.5773291 1.4989998 4524561
-0.28912663 -0.57968098 1.4955 3802644
-0.25316444 -0.57866162 1.499 3212296
-0.2426953 -0.5753305 1.499 3344141
-0.23946667 -0.57300955 1.4966666 3408654
-0.69643128 -0.56602937 1.4948 9336158
-0.30665258 -0.56647933 1.499 5773849
-0.23670812 -0.56609815 1.49725 4132117
-0.69470149 -0.55454481 1.4929999 9335650
-0.70238858 -0.54249531 1.499 10319707
-0.69761187 -0.54635203 1.4954998 9204064
-0.70319432 -0.5397473 1.4966666 12098152
-0.70238858 -0.5253638 1.499 8807767
-0.69939166 -0.52548891 1.4966666 9203293
-0.69718617 -0.51487422 1.4955 9201752
-0.69691736 -0.50491142 1.4933999 9005407
-0.23303621 -0.50159621 1.492 2495508
-0.70359719 -0.4913753 1.4955 8941143
-0.69932097 -0.49565145 1.4955 8875356
-0.2341295 -0.49538386 1.499 1970708
-0.1619886 -0.4916496 1.492 3022111
-0.15649146 -0.49151245 1.49375 2432027
-0.14611113 -0.49146673 1.4943333 2627091
-0.13499045 -0.4916496 1.492 2168339
-0.1278857 -0.4916496 1.492 2166796
-0.70331091 -0.48457628 1.4935554 8875866
-0.6991086 -0.48028189 1.492 9006925
-0.23340064 -0.48387492 1.4943333 2233357
-0.210301 -0.48170286 1.492 2429973
-0.20421121 -0.48271778 1.4919999 1906447
-0.19500582 -0.48446068 1.493 3350293
-0.18469021 -0.48361522 1.4946249 2891288
-0.17541677 -0.48576996 1.4966667 2760727
-0.16541046 -0.4862448 1.49725 2891545
-0.15518096 -0.48607385 1.4976001 2366485
-0.14705832 -0.48675734 1.4962 2627345
-0.13530713 -0.48852667 1.4954998 2233103
-0.12584952 -0.48858285 1.4948 1707794
-0.70506066 -0.47479197 1.4962001 9007198
-0.69953328 -0.47111431 1.499 9008737
-0.23198438 -0.47650248 1.4962 2692366
-0.2260313 -0.47279078 1.4939998 3217944
-0.21369365 -0.47288248 1.4929999 2430996
-0.20472237 -0.47484404 1.4927776 1775890
-0.19606422 -0.47548506 1.498 3022362
-0.18559046 -0.47967997 1.499 2301209
-0.17504808 -0.47594625 1.499 2695191
-0.16560379 -0.47539714 1.499 2826522
-0.15626739 -0.47582123 1.497923 2367251
-0.1484724 -0.47968 1.499 2301453
-0.71142358 -0.4613359 1.492 9466724
-0.70663226 -0.46538976 1.4964544 9073502
-0.69953328 -0.4682591 1.499 9139552
-0.22481377 -0.46611112 1.498222 2431767
-0.21520774 -0.46596107 1.4971334 2169369
-0.20533717 -0.4662815 1.49725 2169359
-0.19782721 -0.46581173 1.4989998 2432278
-0.17531164 -0.46568936 1.4989998 2301459
-0.1656038 -0.46540383 1.4989998 2169873
-0.71166158 -0.4552381 1.4937499 9335136
-0.7080062 -0.45526934 1.4976 9138529
-0.2227086 -0.45969331 1.499 2497047
-0.21557048 -0.45969331 1.499 2496276
-0.20843241 -0.45969331 1.499 2822928
-0.71237093 -0.44460031 1.4919999 9400928
-0.70736116 -0.44474345 1.4939998 8877149
-0.71257448 -0.43509907 1.4929999 8811102
-0.70786667 -0.43583146 1.4955 8286551
-0.71237367 -0.42358357 1.4937499 8676949
-0.70763433 -0.42628571 1.492 8415060
-0.71353513 -0.41483304 1.495111 9335647
-0.71488792 -0.40553942 1.4940999 9269601
-0.71817333 -0.39613682 1.4962 9203816
-0.71881801 -0.38645855 1.4949999 9727588
-0.72210956 -0.37173527 1.4955 9203805
-0.71926093 -0.37601146 1.4955 9203549
-0.72205639 -0.36672267 1.4948 9203290
-0.71783334 -0.3617686 1.4955 9924195
-0.72237527 -0.3569048 1.499 10325873
-0.71814829 -0.35479698 1.4969999 9599594
-0.71633053 -0.34535778 1.4943333 8086365
-0.723059 -0.33375654 1.4955 8020569
-0.71900189 -0.33818671 1.492 8087128
-0.72627151 -0.32585415 1.4940999 8545623
-0.73065531 -0.3133429 1.4955 8809317
-0.72786254 -0.31690779 1.4962 8743004
-0.73119158 -0.30487514 1.4943331 8810341
-0.73407382 -0.29648143 1.4966666 8876382
-0.72808582 -0.29123431 1.499 8941150
-0.73264658 -0.2859647 1.4945453 8941153
-0.72771376 -0.28842857 1.4943333 9006430
-0.73298991 -0.2761566 1.4961998 8810085
-0.7358706 -0.26551855 1.4935554 8876129
-0.73745376 -0.25511715 1.4965 7759183
-0.74204957 -0.24355286 1.4955 6378053
-0.73920095 -0.2478257 1.4955 6703423
-0.75026292 -0.2301943 1.492 7301450
-0.7448318 -0.23518135 1.4948001 7167562
-0.75126487 -0.22399756 1.4939998 5262137
-0.74543762 -0.22574267 1.4982998 3286821
-0.733922 -0.22380003 1.492 2233626
-0.75185007 -0.21837288 1.49375 2694163
-0.6855886 -0.64256001 1.506 9402208
-0.68773997 -0.63538861 1.506 9336421
-0.68702281 -0.6239143 1.506 9402208
-0.68845707 -0.61387432 1.506 7361608
-0.69132572 -0.6024 1.506 9731674
-0.35283431 -0.60383427 1.506 5449001
-0.3442286 -0.6024 1.506 5449769
-0.69132572 -0.59953141 1.506 9664351
-0.68845707 -0.59379429 1.506 9664347
-0.34661901 -0.59475046 1.5060002 6365217
-0.33480331 -0.59502369 1.5059999 5185059
-0.32797334 -0.59283817 1.506 4790043
-0.30550283 -0.59092581 1.506 3215629
-0.69132572 -0.5837543 1.506 9860439
-0.68845707 -0.58662295 1.506 9663316
-0.34566286 -0.58518869 1.5060002 7152166
-0.33562288 -0.58518857 1.506 6496027
-0.32586974 -0.58490181 1.5060002 5707541
-0.31554282 -0.58518863 1.506 5049362
-0.30884948 -0.58710104 1.506 4393225
-0.28434718 -0.58483005 1.506 3605775
-0.27538288 -0.5837543 1.506 3344390
-0.26390857 -0.5837543 1.506 2754823
-0.25817141 -0.58518863 1.506 2885646
-0.24860954 -0.58327621 1.506 2492173
-0.69591534 -0.57543546 1.506 9532765
-0.3445473 -0.57690161 1.506 7020588
-0.33562288 -0.57514858 1.5060002 6757669
-0.32558289 -0.57514864 1.5060003 6036767
-0.31580359 -0.57527894 1.5060002 5708315
-0.3012 -0.57228005 1.506 5968403
-0.2951043 -0.57335567 1.506 5312019
-0.28542289 -0.57514858 1.5060003 4983059
-0.27538291 -0.57514858 1.5060002 4590093
-0.26575261 -0.57576329 1.5060003 3869708
-0.25530285 -0.57622427 1.506 3868424
-0.24669719 -0.57467049 1.506 3541006
-0.69801897 -0.5651086 1.506 9073757
-0.3227143 -0.56797719 1.506 5447205
-0.31554285 -0.56797719 1.506 5904930
-0.30464226 -0.56682974 1.506 6034971
-0.29546288 -0.56797719 1.506 5968151
