# .PCD v0.7 - Point Cloud Data file format
VERSION 0.7
FIELDS x y z rgba
SIZE 4 4 4 4
TYPE F F F U
COUNT 1 1 1 1
WIDTH 1058
HEIGHT 1
VIEWPOINT 0 0 0 1 0 0 0
POINTS 1058
DATA ascii
0.1688842 -0.13846904 0.91300005 4284106294
0.170485 -0.13846904 0.91300005 4284498737
0.17208581 -0.13846904 0.91300005 4284564530
0.17368661 -0.13846904 0.91300005 4284106544
0.1752874 -0.13846904 0.91300005 4284303923
0.1768882 -0.13846904 0.91300005 4284303409
0.178489 -0.13846904 0.91300005 4284500532
0.18008979 -0.13846904 0.91300005 4284108595
0.18169059 -0.13846904 0.91300005 4284239924
0.18369289 -0.13877235 0.91500002 4284501554
0.18529721 -0.13877235 0.91500002 4284501554
0.18690151 -0.13877235 0.91500002 4284436272
0.18850581 -0.13877235 0.91500002 4284502065
0.19011012 -0.13877235 0.91500002 4284567599
0.19171441 -0.13877235 0.91500002 4284567599
0.19331872 -0.13877235 0.91500002 4284894513
0.19492303 -0.13877235 0.91500002 4284894513
0.19652733 -0.13877235 0.91500002 4284632370
0.19813164 -0.13877235 0.91500002 4284632370
0.19973594 -0.13877235 0.91500002 4284632624
0.20134024 -0.13877235 0.91500002 4284632624
0.20360996 -0.13922736 0.91800004 4284698163
0.20566662 -0.13953067 0.92000002 4284632370
0.20727968 -0.13953067 0.92000002 4284566579
0.20957392 -0.13998567 0.92300004 4284237614
0.21119227 -0.13998567 0.92300004 4283448362
0.21281059 -0.13998567 0.92300004 4283645997
0.0055291532 -0.13506931 0.90100002 4285026865
0.0071089109 -0.13506931 0.90100002 4284698163
0.0086886687 -0.13506931 0.90100002 4284698163
0.010268427 -0.13506931 0.90100002 4284960310
0.011848185 -0.13506931 0.90100002 4284960310
0.013383233 -0.13461959 0.89800006 4284501815
0.014957731 -0.13461959 0.89800006 4284107057
0.016495408 -0.13431975 0.89600003 4280947456
0.018066399 -0.13431975 0.89600003 4283184411
0.019637393 -0.13431975 0.89600003 4284501806
0.021208383 -0.13431975 0.89600003 4284764722
0.022779375 -0.13431975 0.89600003 4285157170
0.024350366 -0.13431975 0.89600003 4285157170
0.025921358 -0.13431975 0.89600003 4284830258
0.027492348 -0.13431975 0.89600003 4284764208
0.029063338 -0.13431975 0.89600003 4284501806
0.030634331 -0.13431975 0.89600003 4284501806
0.032205321 -0.13431975 0.89600003 4284632370
0.033776313 -0.13431975 0.89600003 4284698163
0.035347305 -0.13431975 0.89600003 4284698680
0.036918294 -0.13431975 0.89600003 4284764474
0.03848929 -0.13431975 0.89600003 4284764474
0.040149704 -0.13461959 0.89800006 4284764474
0.041724198 -0.13461959 0.89800006 4284699451
0.043298695 -0.13461959 0.89800006 4284699451
0.044873197 -0.13461959 0.89800006 4284830267
0.046447691 -0.13461959 0.89800006 4284698680
0.048022192 -0.13461959 0.89800006 4284764210
0.04959669 -0.13461959 0.89800006 4284698417
0.051171187 -0.13461959 0.89800006 4284895278
0.052745685 -0.13461959 0.89800006 4284895278
0.054320186 -0.13461959 0.89800006 4284764462
0.05589468 -0.13461959 0.89800006 4284764462
0.057469178 -0.13461959 0.89800006 4284437042
0.05924093 -0.13506931 0.90100002 4284437042
0.06082068 -0.13506931 0.90100002 4284764726
0.062400442 -0.13506931 0.90100002 4284764726
0.064122222 -0.13536914 0.90300006 4284764472
0.065705486 -0.13536914 0.90300006 4284764472
0.067288749 -0.13536914 0.90300006 4284764472
0.06887202 -0.13536914 0.90300006 4284764472
0.070455283 -0.13536914 0.90300006 4284830006
0.0721981 -0.13566895 0.90500003 4284830006
0.073784865 -0.13566895 0.90500003 4284960820
0.075371645 -0.13566895 0.90500003 4284895026
0.07695841 -0.13566895 0.90500003 4284764726
0.078545183 -0.13566895 0.90500003 4284764726
0.080397591 -0.13611868 0.90800005 4284764212
0.081989616 -0.13611868 0.90800005 4284698163
0.083581649 -0.13611868 0.90800005 4284109108
0.085173681 -0.13611868 0.90800005 4283516971
0.086765714 -0.13611868 0.90800005 4283118631
0.088357739 -0.13611868 0.90800005 4282658080
0.08965259 -0.13566895 0.90500003 4281805349
0.091239356 -0.13566895 0.90500003 4281476385
0.092826128 -0.13566895 0.90500003 4281541662
0.094412901 -0.13566895 0.90500003 4281475868
0.095999673 -0.13566895 0.90500003 4281279003
0.097909935 -0.13611868 0.90800005 4281344796
0.099501967 -0.13611868 0.90800005 4281213980
0.101094 -0.13611868 0.90800005 4281411359
0.10268603 -0.13611868 0.90800005 4281543458
0.10427806 -0.13611868 0.90800005 4281609251
0.10587009 -0.13611868 0.90800005 4281739043
0.10746212 -0.13611868 0.90800005 4281739043
0.10905415 -0.13611868 0.90800005 4281804838
0.11064618 -0.13611868 0.90800005 4281936167
0.11223821 -0.13611868 0.90800005 4281739558
0.11408097 -0.13641851 0.91000003 4281739558
0.11567651 -0.13641851 0.91000003 4281478183
0.11765867 -0.13686824 0.91300005 4281280804
0.11925945 -0.13686824 0.91300005 4281673763
0.12086026 -0.13686824 0.91300005 4281410592
0.12272932 -0.13716805 0.91500002 4281476637
0.12433361 -0.13716805 0.91500002 4281542430
0.12593792 -0.13716805 0.91500002 4281347099
0.12726346 -0.13686824 0.91300005 4281347099
0.12886426 -0.13686824 0.91300005 4281805599
0.13046505 -0.13686824 0.91300005 4281937442
0.13206585 -0.13686824 0.91300005 4282330912
0.13366665 -0.13686824 0.91300005 4282330912
0.13526745 -0.13686824 0.91300005 4282726944
0.13686824 -0.13686824 0.91300005 4283450410
0.13846904 -0.13686824 0.91300005 4284762673
0.14006984 -0.13686824 0.91300005 4284302122
0.14198098 -0.13716805 0.91500002 4284302122
0.14358528 -0.13716805 0.91500002 4284302122
0.14518958 -0.13716805 0.91500002 4284499757
0.14679389 -0.13716805 0.91500002 4284696880
0.14839819 -0.13716805 0.91500002 4283975473
0.15000249 -0.13716805 0.91500002 4284107059
0.1516068 -0.13716805 0.91500002 4284890931
0.1532111 -0.13716805 0.91500002 4284956724
0.15481541 -0.13716805 0.91500002 4284629040
0.15641971 -0.13716805 0.91500002 4284431918
0.15802401 -0.13716805 0.91500002 4283187502
0.15962833 -0.13716805 0.91500002 4283121709
0.16123264 -0.13716805 0.91500002 4283514420
0.16283694 -0.13716805 0.91500002 4283514420
0.16444123 -0.13716805 0.91500002 4283710264
0.16604553 -0.13716805 0.91500002 4283578678
0.16764985 -0.13716805 0.91500002 4283578165
0.16925415 -0.13716805 0.91500002 4283643958
0.17085846 -0.13716805 0.91500002 4284102446
0.17246276 -0.13716805 0.91500002 4284102446
0.17406707 -0.13716805 0.91500002 4283644973
0.17567137 -0.13716805 0.91500002 4283710766
0.17727569 -0.13716805 0.91500002 4283579952
0.17887998 -0.13716805 0.91500002 4283842868
0.18048428 -0.13716805 0.91500002 4283778612
0.18208858 -0.13716805 0.91500002 4283975992
0.18369289 -0.13716805 0.91500002 4284173616
0.18529721 -0.13716805 0.91500002 4284239665
0.18751431 -0.1376178 0.91800004 4284436526
0.18912387 -0.1376178 0.91800004 4284502319
0.19073343 -0.1376178 0.91800004 4284698415
0.192343 -0.1376178 0.91800004 4284764208
0.19395256 -0.1376178 0.91800004 4284567347
0.19556212 -0.1376178 0.91800004 4284501554
0.19717169 -0.1376178 0.91800004 4284436274
0.19921432 -0.13791761 0.92000002 4284502067
0.20082739 -0.13791761 0.92000002 4284436274
0.20244046 -0.13791761 0.92000002 4284436274
0.20471893 -0.13836734 0.92300004 4284502069
0.20633726 -0.13836734 0.92300004 4284502069
0.20840621 -0.13866718 0.92500007 4284500786
0.21002805 -0.13866718 0.92500007 4284106028
0.0071089109 -0.13348955 0.90100002 4284895026
0.0086886687 -0.13348955 0.90100002 4284829233
0.010291221 -0.13378587 0.90300006 4284960308
0.011874486 -0.13378587 0.90300006 4284960308
0.013427943 -0.13348955 0.90100002 4284631859
0.014957731 -0.13304509 0.89800006 4284105515
0.016532229 -0.13304509 0.89800006 4281869579
0.018106727 -0.13304509 0.89800006 4283777576
0.019681225 -0.13304509 0.89800006 4284108597
0.021255724 -0.13304509 0.89800006 4284371512
0.022830222 -0.13304509 0.89800006 4285091640
0.024404719 -0.13304509 0.89800006 4285091640
0.025979219 -0.13304509 0.89800006 4285091892
0.027492348 -0.13274877 0.89600003 4284960306
0.029063338 -0.13274877 0.89600003 4284764210
0.030634331 -0.13274877 0.89600003 4284764210
0.032205321 -0.13274877 0.89600003 4285025333
0.033851709 -0.13304509 0.89800006 4285025333
0.035426207 -0.13304509 0.89800006 4284829754
0.037000705 -0.13304509 0.89800006 4284829754
0.038575202 -0.13304509 0.89800006 4285026363
0.040149704 -0.13304509 0.89800006 4285026363
0.041724198 -0.13304509 0.89800006 4284633656
0.043298695 -0.13304509 0.89800006 4284633656
0.044873197 -0.13304509 0.89800006 4284633654
0.046447691 -0.13304509 0.89800006 4284633654
0.048022192 -0.13304509 0.89800006 4284698930
0.04959669 -0.13304509 0.89800006 4284764724
0.051171187 -0.13304509 0.89800006 4284960820
0.052921891 -0.13348955 0.90100002 4285026613
0.054501653 -0.13348955 0.90100002 4284764726
0.05608141 -0.13348955 0.90100002 4284764726
0.057789166 -0.13378587 0.90300006 4284437046
0.059372429 -0.13378587 0.90300006 4284568376
0.0610907 -0.13408218 0.90500003 4284960824
0.062677473 -0.13408218 0.90500003 4284960824
0.064264238 -0.13408218 0.90500003 4284763958
0.065851018 -0.13408218 0.90500003 4284763958
0.067437783 -0.13408218 0.90500003 4285091638
0.069024555 -0.13408218 0.90500003 4285091638
0.070611328 -0.13408218 0.90500003 4284764210
0.072437435 -0.13452666 0.90800005 4284830004
0.074029468 -0.13452666 0.90800005 4284830004
0.075621493 -0.13452666 0.90800005 4284830004
0.077213526 -0.13452666 0.90800005 4284830006
0.078805558 -0.13452666 0.90800005 4284764212
0.080574676 -0.13482296 0.91000003 4285025331
0.082170211 -0.13482296 0.91000003 4285025331
0.083765753 -0.13482296 0.91000003 4284109360
0.085642695 -0.13526745 0.91300005 4283583016
0.087243497 -0.13526745 0.91300005 4282593055
0.088844292 -0.13526745 0.91300005 4282198297
0.090445094 -0.13526745 0.91300005 4282001699
0.092247523 -0.13556376 0.91500002 4281606942
0.093851827 -0.13556376 0.91500002 4281476637
0.095456131 -0.13556376 0.91500002 4281410843
0.097060442 -0.13556376 0.91500002 4281541659
0.098664746 -0.13556376 0.91500002 4281541659
0.10026904 -0.13556376 0.91500002 4281345563
0.10187335 -0.13556376 0.91500002 4281214234
0.10347766 -0.13556376 0.91500002 4281411357
0.10508196 -0.13556376 0.91500002 4281542943
0.10668626 -0.13556376 0.91500002 4281411355
0.10829057 -0.13556376 0.91500002 4281608990
0.10965467 -0.13526745 0.91300005 4281937442
0.11125547 -0.13526745 0.91300005 4281871392
0.11285626 -0.13526745 0.91300005 4281674783
0.11470779 -0.13556376 0.91500002 4281871906
0.11631209 -0.13556376 0.91500002 4281675810
0.11791641 -0.13556376 0.91500002 4281412894
0.11952071 -0.13556376 0.91500002 4281609503
0.12112501 -0.13556376 0.91500002 4281543710
0.12313171 -0.13600823 0.91800004 4281543708
0.12474127 -0.13600823 0.91800004 4281543708
0.12635083 -0.13600823 0.91800004 4281545246
0.12754223 -0.13556376 0.91500002 4281545246
0.12914653 -0.13556376 0.91500002 4281937190
0.13075083 -0.13556376 0.91500002 4282331947
0.13235514 -0.13556376 0.91500002 4283053617
0.13395946 -0.13556376 0.91500002 4282856495
0.13556376 -0.13556376 0.91500002 4283185960
0.13716805 -0.13556376 0.91500002 4283185960
0.13877235 -0.13556376 0.91500002 4283971113
0.14037666 -0.13556376 0.91500002 4283905320
0.14198098 -0.13556376 0.91500002 4283512360
0.14358528 -0.13556376 0.91500002 4283578154
0.14566562 -0.13600823 0.91800004 4283774765
0.14727518 -0.13600823 0.91800004 4283708972
0.14888474 -0.13600823 0.91800004 4283119662
0.15049431 -0.13600823 0.91800004 4283119662
0.15210389 -0.13600823 0.91800004 4283119151
0.15404832 -0.13630453 0.92000002 4283053102
0.15566139 -0.13630453 0.92000002 4283053356
0.15727447 -0.13630453 0.92000002 4282855721
0.15888754 -0.13630453 0.92000002 4282331945
0.1605006 -0.13630453 0.92000002 4282397739
0.16211368 -0.13630453 0.92000002 4282791213
0.16372676 -0.13630453 0.92000002 4282791213
0.16533983 -0.13630453 0.92000002 4282725420
0.16695289 -0.13630453 0.92000002 4282067490
0.16819952 -0.13600823 0.91800004 4282329630
0.16980909 -0.13600823 0.91800004 4282790181
0.17141865 -0.13600823 0.91800004 4282986525
0.17246276 -0.13556376 0.91500002 4283052575
0.17406707 -0.13556376 0.91500002 4283117603
0.17567137 -0.13556376 0.91500002 4283117603
0.17727569 -0.13556376 0.91500002 4282857004
0.17887998 -0.13556376 0.91500002 4282988846
0.18048428 -0.13556376 0.91500002 4283252016
0.18208858 -0.13556376 0.91500002 4283515189
0.18429518 -0.13600823 0.91800004 4283845168
0.18590474 -0.13600823 0.91800004 4283976755
0.18792282 -0.13630453 0.92000002 4284566829
0.18953589 -0.13630453 0.92000002 4284698415
0.19114897 -0.13630453 0.92000002 4284829233
0.19276203 -0.13630453 0.92000002 4284829233
0.19437511 -0.13630453 0.92000002 4284370997
0.19662729 -0.136749 0.92300004 4284370997
0.19824561 -0.136749 0.92300004 4284567095
0.20029703 -0.13704532 0.92500007 4284435509
0.20191886 -0.13704532 0.92500007 4284239926
0.2035407 -0.13704532 0.92500007 4284239926
0.20516254 -0.13704532 0.92500007 4284370997
0.20678437 -0.13704532 0.92500007 4284239411
0.20953272 -0.13778612 0.93000007 4284630573
0.0087272422 -0.13249542 0.90500003 4284698415
0.010314014 -0.13249542 0.90500003 4284829231
0.011900785 -0.13249542 0.90500003 4284829231
0.013487557 -0.13249542 0.90500003 4284369455
0.015007701 -0.1319098 0.90100002 4283908904
0.01658746 -0.1319098 0.90100002 4281539854
0.018167216 -0.1319098 0.90100002 4282526749
0.019746976 -0.1319098 0.90100002 4283910198
0.021326732 -0.1319098 0.90100002 4284304956
0.022906492 -0.1319098 0.90100002 4284895028
0.024404719 -0.13147059 0.89800006 4284895028
0.025979219 -0.13147059 0.89800006 4284830006
0.027553717 -0.13147059 0.89800006 4284830006
0.029128214 -0.13147059 0.89800006 4284830006
0.030702714 -0.13147059 0.89800006 4284764212
0.03238504 -0.1319098 0.90100002 4285090613
0.033964798 -0.1319098 0.90100002 4285090613
0.035544556 -0.1319098 0.90100002 4284829754
0.037124313 -0.1319098 0.90100002 4284829754
0.038704071 -0.1319098 0.90100002 4285026617
0.040283829 -0.1319098 0.90100002 4284960824
0.041863587 -0.1319098 0.90100002 4284633654
0.043443345 -0.1319098 0.90100002 4284567860
0.045023106 -0.1319098 0.90100002 4284633908
0.046706311 -0.13220261 0.90300006 4284633908
0.048289575 -0.13220261 0.90300006 4284764724
0.049872842 -0.13220261 0.90300006 4284764724
0.051456105 -0.13220261 0.90300006 4285222713
0.053156842 -0.13249542 0.90500003 4285222713
0.054743614 -0.13249542 0.90500003 4284634171
0.056330387 -0.13249542 0.90500003 4284634171
0.057917155 -0.13249542 0.90500003 4284699449
0.059701182 -0.13293462 0.90800005 4284633656
0.061293207 -0.13293462 0.90800005 4284960824
0.06288524 -0.13293462 0.90800005 4284894774
0.064477272 -0.13293462 0.90800005 4285091124
0.066069305 -0.13293462 0.90800005 4285156918
0.067661338 -0.13293462 0.90800005 4285091890
0.069253363 -0.13293462 0.90800005 4284894767
0.070845395 -0.13293462 0.90800005 4284764210
0.072596982 -0.13322742 0.91000003 4284830004
0.074437112 -0.13366665 0.91300005 4284633656
0.076037914 -0.13366665 0.91300005 4284567862
0.077638708 -0.13366665 0.91300005 4284894774
0.079239503 -0.13366665 0.91300005 4284828981
0.080840304 -0.13366665 0.91300005 4284632372
0.082621694 -0.13395946 0.91500002 4284632372
0.084226005 -0.13395946 0.91500002 4284239663
0.085830301 -0.13395946 0.91500002 4283779112
0.087721281 -0.13439865 0.91800004 4283580454
0.089330845 -0.13439865 0.91800004 4282659352
0.090940408 -0.13439865 0.91800004 4282396705
0.09254998 -0.13439865 0.91800004 4282067996
0.094159544 -0.13439865 0.91800004 4282134049
0.095769107 -0.13439865 0.91800004 4281936669
0.097378671 -0.13439865 0.91800004 4281609501
0.098988235 -0.13439865 0.91800004 4281609501
0.10059781 -0.13439865 0.91800004 4281282076
0.10220736 -0.13439865 0.91800004 4281282076
0.10381693 -0.13439865 0.91800004 4281675296
0.10542649 -0.13439865 0.91800004 4281806883
0.10703606 -0.13439865 0.91800004 4281479198
0.10888232 -0.13469146 0.92000002 4281544992
0.1104954 -0.13469146 0.92000002 4281872932
0.11210847 -0.13469146 0.92000002 4281609503
0.11372153 -0.13469146 0.92000002 4281609503
0.1157107 -0.13513067 0.92300004 4281872932
0.11732903 -0.13513067 0.92300004 4281871394
0.11894736 -0.13513067 0.92300004 4281805601
0.1205657 -0.13513067 0.92300004 4281935904
0.12218402 -0.13513067 0.92300004 4281935904
0.12380236 -0.13513067 0.92300004 4281608990
0.12542069 -0.13513067 0.92300004 4281608990
0.12703903 -0.13513067 0.92300004 4281674531
0.12823917 -0.13469146 0.92000002 4281674531
0.12956996 -0.13439865 0.91800004 4282066989
0.13117953 -0.13439865 0.91800004 4282264367
0.13278909 -0.13439865 0.91800004 4282200109
0.13439865 -0.13439865 0.91800004 4282134060
0.13600823 -0.13439865 0.91800004 4282525728
0.1376178 -0.13439865 0.91800004 4282657315
0.13922736 -0.13439865 0.91800004 4282199076
0.14083692 -0.13439865 0.91800004 4282264869
0.14244649 -0.13439865 0.91800004 4282200357
0.14405605 -0.13439865 0.91800004 4282266150
0.14598297 -0.13469146 0.92000002 4282658596
0.14759603 -0.13469146 0.92000002 4282592803
0.1492091 -0.13469146 0.92000002 4282069541
0.15082218 -0.13469146 0.92000002 4282069541
0.15293233 -0.13513067 0.92300004 4282069541
0.15455067 -0.13513067 0.92300004 4282332457
0.15650739 -0.13542348 0.92500007 4282135845
0.15812923 -0.13542348 0.92500007 4282004259
0.15975107 -0.13542348 0.92500007 4281936417
0.1613729 -0.13542348 0.92500007 4282462761
0.16299474 -0.13542348 0.92500007 4282398506
0.16461657 -0.13542348 0.92500007 4282332457
0.16623841 -0.13542348 0.92500007 4282332197
0.16786027 -0.13542348 0.92500007 4282003233
0.16911565 -0.13513067 0.92300004 4282002462
0.17017904 -0.13469146 0.92000002 4282199842
0.1717921 -0.13469146 0.92000002 4282332449
0.17340519 -0.13469146 0.92000002 4282266400
0.17501825 -0.13469146 0.92000002 4282397472
0.17663133 -0.13469146 0.92000002 4282463265
0.17882563 -0.13513067 0.92300004 4282332197
0.18044396 -0.13513067 0.92300004 4282134562
0.18147053 -0.13469146 0.92000002 4282594602
0.18308361 -0.13469146 0.92000002 4283055153
0.18529895 -0.13513067 0.92300004 4283843118
0.18691729 -0.13513067 0.92300004 4284303669
0.18894415 -0.13542348 0.92500007 4284632622
0.19056599 -0.13542348 0.92500007 4284698415
0.19218783 -0.13542348 0.92500007 4284829233
0.19380966 -0.13542348 0.92500007 4284697904
0.19543152 -0.13542348 0.92500007 4284502067
0.19705336 -0.13542348 0.92500007 4284502067
0.19867519 -0.13542348 0.92500007 4284567860
0.20029703 -0.13542348 0.92500007 4284436274
0.20257372 -0.13586269 0.92800003 4284305206
0.20420082 -0.13586269 0.92800003 4284370999
0.20627153 -0.13615552 0.93000007 4284829235
0.20901988 -0.13688752 0.93500006 4284631857
0.0088043893 -0.13206585 0.91300005 4284697902
0.010348205 -0.13134259 0.90800005 4284697902
0.011940236 -0.13134259 0.90800005 4284697902
0.013487557 -0.13090865 0.90500003 4284369707
0.015074328 -0.13090865 0.90500003 4284303657
0.016624279 -0.13061935 0.90300006 4281342470
0.018207544 -0.13061935 0.90300006 4282658330
0.01979081 -0.13061935 0.90300006 4283845170
0.021374075 -0.13061935 0.90300006 4284108343
0.02295734 -0.13061935 0.90300006 4284830006
0.024540603 -0.13061935 0.90300006 4284830006
0.026123868 -0.13061935 0.90300006 4285026617
0.027707133 -0.13061935 0.90300006 4284960824
0.029290399 -0.13061935 0.90300006 4284894515
0.030942043 -0.13090865 0.90500003 4284894515
0.03252881 -0.13090865 0.90500003 4285025329
0.034115586 -0.13090865 0.90500003 4285091378
0.035702359 -0.13090865 0.90500003 4284960824
0.037289128 -0.13090865 0.90500003 4284960824
0.038789984 -0.13061935 0.90300006 4284961337
0.040373251 -0.13061935 0.90300006 4284829752
0.041956514 -0.13061935 0.90300006 4284698676
0.043539781 -0.13061935 0.90300006 4284764726
0.045123048 -0.13061935 0.90300006 4284830519
0.046809755 -0.13090865 0.90500003 4284830519
0.048396528 -0.13090865 0.90500003 4284830006
0.0499833 -0.13090865 0.90500003 4284830006
0.051570069 -0.13090865 0.90500003 4285157431
0.053333052 -0.13134259 0.90800005 4285091638
0.054925084 -0.13134259 0.90800005 4284698678
0.056517117 -0.13134259 0.90800005 4284764472
0.058109149 -0.13134259 0.90800005 4284829754
0.059701182 -0.13134259 0.90800005 4284763960
0.061428215 -0.1316319 0.91000003 4284763958
0.063023753 -0.1316319 0.91000003 4284698165
0.064619288 -0.1316319 0.91000003 4284764210
0.06621483 -0.1316319 0.91000003 4284830004
0.067810364 -0.1316319 0.91000003 4284568114
0.069634721 -0.13206585 0.91300005 4284502065
0.071235515 -0.13206585 0.91300005 4284501556
0.072836317 -0.13206585 0.91300005 4284435763
0.074600168 -0.13235514 0.91500002 4284239161
0.076204479 -0.13235514 0.91500002 4284173368
0.077808782 -0.13235514 0.91500002 4284762425
0.079413086 -0.13235514 0.91500002 4284499253
0.08101739 -0.13235514 0.91500002 4283976241
0.082892582 -0.13278909 0.91800004 4283844655
0.084502153 -0.13278909 0.91800004 4283515690
0.086111717 -0.13278909 0.91800004 4283515690
0.087721281 -0.13278909 0.91800004 4283646770
0.089525469 -0.1330784 0.92000002 4282989096
0.091138534 -0.1330784 0.92000002 4282726442
0.092751607 -0.1330784 0.92000002 4282397220
0.09436468 -0.1330784 0.92000002 4282528293
0.095977753 -0.1330784 0.92000002 4282265121
0.097590819 -0.1330784 0.92000002 4281807396
0.099203892 -0.1330784 0.92000002 4281544480
0.10081697 -0.1330784 0.92000002 4281478433
0.10243004 -0.1330784 0.92000002 4281346847
0.1040431 -0.1330784 0.92000002 4281281822
0.10600071 -0.13351235 0.92300004 4281413407
0.10761904 -0.13351235 0.92300004 4281674783
0.10947408 -0.13380165 0.92500007 4281674783
0.11109591 -0.13380165 0.92500007 4281542945
0.11271776 -0.13380165 0.92500007 4281345310
0.11433959 -0.13380165 0.92500007 4281345312
0.11596143 -0.13380165 0.92500007 4281476898
0.11758327 -0.13380165 0.92500007 4281805090
0.11920511 -0.13380165 0.92500007 4281739041
0.12082695 -0.13380165 0.92500007 4282001949
0.12244879 -0.13380165 0.92500007 4282199072
0.12407062 -0.13380165 0.92500007 4281741344
0.12569247 -0.13380165 0.92500007 4281609501
0.1273143 -0.13380165 0.92500007 4281805090
0.12893614 -0.13380165 0.92500007 4281739041
0.13055798 -0.13380165 0.92500007 4281936165
0.13217981 -0.13380165 0.92500007 4282001959
0.13380165 -0.13380165 0.92500007 4281805863
0.13542348 -0.13380165 0.92500007 4281805863
0.13704532 -0.13380165 0.92500007 4282067744
0.13866718 -0.13380165 0.92500007 4282264867
0.14028901 -0.13380165 0.92500007 4281675808
0.14191085 -0.13380165 0.92500007 4281544478
0.14322233 -0.13351235 0.92300004 4281544480
0.14484067 -0.13351235 0.92300004 4281544480
0.146459 -0.13351235 0.92300004 4282067490
0.14807734 -0.13351235 0.92300004 4282067490
0.15002003 -0.13380165 0.92500007 4281871394
0.15164188 -0.13380165 0.92500007 4282002981
0.15326372 -0.13380165 0.92500007 4282135845
0.15488556 -0.13380165 0.92500007 4282794032
0.15701497 -0.13423561 0.92800003 4282531880
0.15864207 -0.13423561 0.92800003 4282400037
0.16026917 -0.13423561 0.92800003 4282532389
0.16189627 -0.13423561 0.92800003 4282400802
0.16352336 -0.13423561 0.92800003 4282332959
0.16515046 -0.13423561 0.92800003 4282135836
0.16677757 -0.13423561 0.92800003 4282069539
0.16840467 -0.13423561 0.92800003 4281937953
0.17003177 -0.13423561 0.92800003 4282134051
0.17110394 -0.13380165 0.92500007 4282199844
0.17272577 -0.13380165 0.92500007 4282134562
0.17434761 -0.13380165 0.92500007 4282003233
0.17596945 -0.13380165 0.92500007 4281872932
0.17816725 -0.13423561 0.92800003 4282004261
0.17979436 -0.13423561 0.92800003 4282200357
0.18142144 -0.13423561 0.92800003 4282134564
0.18304855 -0.13423561 0.92800003 4282266150
0.18467565 -0.13423561 0.92800003 4282595115
0.18630274 -0.13423561 0.92800003 4283841836
0.18792984 -0.13423561 0.92800003 4284433973
0.18955694 -0.13423561 0.92800003 4284632111
0.19118403 -0.13423561 0.92800003 4284829233
0.19281113 -0.13423561 0.92800003 4284697904
0.19443823 -0.13423561 0.92800003 4284829233
0.19606534 -0.13423561 0.92800003 4284436526
0.19769244 -0.13423561 0.92800003 4284502319
0.19974911 -0.13452491 0.93000007 4284502065
0.20137972 -0.13452491 0.93000007 4284436272
0.20366517 -0.13495885 0.93300003 4284239922
0.20574114 -0.13524815 0.93500006 4284305971
0.20738052 -0.13524815 0.93500006 4284829485
0.20969053 -0.13568211 0.93800002 4284829485
0.21133515 -0.13568211 0.93800002 4284564517
0.008823676 -0.13075083 0.91500002 4284697650
0.010405187 -0.13046505 0.91300005 4284697650
0.012005986 -0.13046505 0.91300005 4284697650
0.013562074 -0.13003635 0.91000003 4284632624
0.015124299 -0.12975056 0.90800005 4285158968
0.0166611 -0.12932186 0.90500003 4280358400
0.018247871 -0.12932186 0.90500003 4281937171
0.019834641 -0.12932186 0.90500003 4283975469
0.021421414 -0.12932186 0.90500003 4284502069
0.023008185 -0.12932186 0.90500003 4284960820
0.024594955 -0.12932186 0.90500003 4285026613
0.026181728 -0.12932186 0.90500003 4285026363
0.0277685 -0.12932186 0.90500003 4284960570
0.029452581 -0.12975056 0.90800005 4284960822
0.031044614 -0.12975056 0.90800005 4284895028
0.032636642 -0.12975056 0.90800005 4285091124
0.034228675 -0.12975056 0.90800005 4285025331
0.035820708 -0.12975056 0.90800005 4285091124
0.03741274 -0.12975056 0.90800005 4285156918
0.0388759 -0.12932186 0.90500003 4284960822
0.040462673 -0.12932186 0.90500003 4284960822
0.042049441 -0.12932186 0.90500003 4284895028
0.043636214 -0.12932186 0.90500003 4285026615
0.045222986 -0.12932186 0.90500003 4285026617
0.046809755 -0.12932186 0.90500003 4284960824
0.048396528 -0.12932186 0.90500003 4284894774
0.0499833 -0.12932186 0.90500003 4284894774
0.051741023 -0.12975056 0.90800005 4284698165
0.053333052 -0.12975056 0.90800005 4284632372
0.055046063 -0.13003635 0.91000003 4284369714
0.056641601 -0.13003635 0.91000003 4284435763
0.058237139 -0.13003635 0.91000003 4284828468
0.060029931 -0.13046505 0.91300005 4284828468
0.061630726 -0.13046505 0.91300005 4284501302
0.063231528 -0.13046505 0.91300005 4284303923
0.064832322 -0.13046505 0.91300005 4284306490
0.066433124 -0.13046505 0.91300005 4283977268
0.068033919 -0.13046505 0.91300005 4283845937
0.069787256 -0.13075083 0.91500002 4283648557
0.071391568 -0.13075083 0.91500002 4283712302
0.072995864 -0.13075083 0.91500002 4283580715
0.074600168 -0.13075083 0.91500002 4283383604
0.076204479 -0.13075083 0.91500002 4283383604
0.077808782 -0.13075083 0.91500002 4283971891
0.079413086 -0.13075083 0.91500002 4283774513
0.081283018 -0.13117953 0.91800004 4283185456
0.082892582 -0.13117953 0.91800004 4282790698
0.084686249 -0.13146533 0.92000002 4282790700
0.086299323 -0.13146533 0.92000002 4282987822
0.088199064 -0.13189402 0.92300004 4282594352
0.089817397 -0.13189402 0.92300004 4282396716
0.091633864 -0.13217981 0.92500007 4281937190
0.093255699 -0.13217981 0.92500007 4281739554
0.094877534 -0.13217981 0.92500007 4282001949
0.096290722 -0.13189402 0.92300004 4282001949
0.097909056 -0.13189402 0.92300004 4281675296
0.099527389 -0.13189402 0.92300004 4281675296
0.10114572 -0.13189402 0.92300004 4281608738
0.10298672 -0.13217981 0.92500007 4281411359
0.10460857 -0.13217981 0.92500007 4281281054
0.10623041 -0.13217981 0.92500007 4281412640
0.10785224 -0.13217981 0.92500007 4281674783
0.10982913 -0.1326085 0.92800003 4281674783
0.11145622 -0.1326085 0.92800003 4281542945
0.11308333 -0.1326085 0.92800003 4281345310
0.11471042 -0.1326085 0.92800003 4280952350
0.11633752 -0.1326085 0.92800003 4281215779
0.11796461 -0.1326085 0.92800003 4282068258
0.11959171 -0.1326085 0.92800003 4282199844
0.12121882 -0.1326085 0.92800003 4282202143
0.12284591 -0.1326085 0.92800003 4282267936
0.12447301 -0.1326085 0.92800003 4282464288
0.12610011 -0.1326085 0.92800003 4282266652
0.1277272 -0.1326085 0.92800003 4282003487
0.1293543 -0.1326085 0.92800003 4281871644
0.1309814 -0.1326085 0.92800003 4281807648
0.1326085 -0.1326085 0.92800003 4281544732
0.13423561 -0.1326085 0.92800003 4281543195
0.13586269 -0.1326085 0.92800003 4281674781
0.1374898 -0.1326085 0.92800003 4282266402
0.1391169 -0.1326085 0.92800003 4282134816
0.14028901 -0.13217981 0.92500007 4281609755
0.14191085 -0.13217981 0.92500007 4281543962
0.14353268 -0.13217981 0.92500007 4281478685
0.14562528 -0.1326085 0.92800003 4281544478
0.14725238 -0.1326085 0.92800003 4281937442
0.14887948 -0.1326085 0.92800003 4281805599
0.15050659 -0.1326085 0.92800003 4281935906
0.15213369 -0.1326085 0.92800003 4282001699
0.15409218 -0.13289431 0.93000007 4282266150
0.15622509 -0.13332298 0.93300003 4282858544
0.15786095 -0.13332298 0.93300003 4283056938
0.15983874 -0.13360879 0.93500006 4283188267
0.1614781 -0.13360879 0.93500006 4282862635
0.16311748 -0.13360879 0.93500006 4281941789
0.16440442 -0.13332298 0.93300003 4282593566
0.16604029 -0.13332298 0.93300003 4282593566
0.16767614 -0.13332298 0.93300003 4282069541
0.16931202 -0.13332298 0.93300003 4281937955
0.17039821 -0.13289431 0.93000007 4282199072
0.17202881 -0.13289431 0.93000007 4282199072
0.17365943 -0.13289431 0.93000007 4281936408
0.17529003 -0.13289431 0.93000007 4282067994
0.17692064 -0.13289431 0.93000007 4281807137
0.17855124 -0.13289431 0.93000007 4281872930
0.18018185 -0.13289431 0.93000007 4282003748
0.18239893 -0.13332298 0.93300003 4282003748
0.18403479 -0.13332298 0.93300003 4282395940
0.18567066 -0.13332298 0.93300003 4282724905
0.18730654 -0.13332298 0.93300003 4283908652
0.1889424 -0.13332298 0.93300003 4284369203
0.19057825 -0.13332298 0.93300003 4284436272
0.19221412 -0.13332298 0.93300003 4284436272
0.19384998 -0.13332298 0.93300003 4284567347
0.19548585 -0.13332298 0.93300003 4284567347
0.19712172 -0.13332298 0.93300003 4284501806
0.19918366 -0.13360879 0.93500006 4284501806
0.20082302 -0.13360879 0.93500006 4284370477
0.2024624 -0.13360879 0.93500006 4284370477
0.20410177 -0.13360879 0.93500006 4284371503
0.20640126 -0.13403746 0.93800002 4284371503
0.2080459 -0.13403746 0.93800002 4284829224
0.20969053 -0.13403746 0.93800002 4284697382
0.21178578 -0.13432328 0.94000006 4282067724
0.21479625 -0.13518065 0.94600004 4283186461
0.0088526066 -0.12956996 0.91800004 4284697652
0.010427981 -0.12914653 0.91500002 4284894515
0.012032285 -0.12914653 0.91500002 4284960308
0.013606784 -0.12886426 0.91300005 4284828468
0.015207581 -0.12886426 0.91300005 4284433710
0.01675315 -0.12844083 0.91000003 4281210121
0.018308362 -0.12815852 0.90800005 4282197016
0.019900393 -0.12815852 0.90800005 4284763710
0.021492423 -0.12815852 0.90800005 4284763710
0.023135303 -0.12844083 0.91000003 4284699449
0.024730841 -0.12844083 0.91000003 4284699449
0.026326379 -0.12844083 0.91000003 4284830267
0.027921915 -0.12844083 0.91000003 4284764474
0.029517455 -0.12844083 0.91000003 4284960822
0.031215563 -0.12886426 0.91300005 4284960822
0.032816362 -0.12886426 0.91300005 4285091892
0.03441716 -0.12886426 0.91300005 4284960306
0.036017958 -0.12886426 0.91300005 4285091892
0.037618756 -0.12886426 0.91300005 4285157685
0.039090682 -0.12844083 0.91000003 4285157431
0.04068622 -0.12844083 0.91000003 4285157431
0.042281758 -0.12844083 0.91000003 4284830006
0.0438773 -0.12844083 0.91000003 4284830006
0.045472838 -0.12844083 0.91000003 4284960570
0.047068372 -0.12844083 0.91000003 4284894776
0.04866391 -0.12844083 0.91000003 4284632122
0.050259449 -0.12844083 0.91000003 4284500280
0.052025937 -0.12886426 0.91300005 4284106810
0.053626735 -0.12886426 0.91300005 4283975223
0.055227533 -0.12886426 0.91300005 4283846200
0.056828335 -0.12886426 0.91300005 4283451442
0.058429129 -0.12886426 0.91300005 4284300588
0.060161427 -0.12914653 0.91500002 4284169259
0.061765734 -0.12914653 0.91500002 4283646259
0.063370042 -0.12914653 0.91500002 4283185708
0.064974345 -0.12914653 0.91500002 4283055666
0.066578649 -0.12914653 0.91500002 4282726701
0.068182953 -0.12914653 0.91500002 4282857004
0.069787256 -0.12914653 0.91500002 4282725418
0.071391568 -0.12914653 0.91500002 4283117864
0.072995864 -0.12914653 0.91500002 4283183657
0.074844763 -0.12956996 0.91800004 4282528041
0.076454334 -0.12956996 0.91800004 4282594091
0.078063898 -0.12956996 0.91800004 4282855725
0.079847038 -0.12985225 0.92000002 4282329124
0.081460103 -0.12985225 0.92000002 4282395942
0.083344072 -0.1302757 0.92300004 4282264356
0.084962398 -0.1302757 0.92300004 4282199844
0.086768344 -0.13055798 0.92500007 4282463015
0.088390179 -0.13055798 0.92500007 4282200359
0.090012021 -0.13055798 0.92500007 4280950293
0.091633864 -0.13055798 0.92500007 4281741092
0.093255699 -0.13055798 0.92500007 4281543456
0.094877534 -0.13055798 0.92500007 4281674011
0.096499376 -0.13055798 0.92500007 4281871646
0.098121218 -0.13055798 0.92500007 4281675812
0.10006654 -0.1309814 0.92800003 4281675812
0.10169364 -0.1309814 0.92800003 4281543460
0.10332073 -0.1309814 0.92800003 4281346082
0.10517402 -0.1312637 0.93000007 4281346849
0.10680462 -0.1312637 0.93000007 4281412642
0.10843523 -0.1312637 0.93000007 4281675298
0.11006583 -0.1312637 0.93000007 4281806885
0.11169644 -0.1312637 0.93000007 4281544228
0.11332703 -0.1312637 0.93000007 4281412642
0.11495765 -0.1312637 0.93000007 4281478433
0.11658825 -0.1312637 0.93000007 4281938984
0.11821885 -0.1312637 0.93000007 4282398756
0.11984946 -0.1312637 0.93000007 4282530342
0.12148006 -0.1312637 0.93000007 4282596902
0.12311067 -0.1312637 0.93000007 4282662696
0.12474127 -0.1312637 0.93000007 4283186989
0.12637188 -0.1312637 0.93000007 4282726438
0.12841539 -0.13168712 0.93300003 4282463265
0.13005126 -0.13168712 0.93300003 4282397472
0.1312637 -0.1312637 0.93000007 4281939488
0.13289431 -0.1312637 0.93000007 4281741853
0.13452491 -0.1312637 0.93000007 4281806364
0.13615552 -0.1312637 0.93000007 4281937951
0.13778612 -0.1312637 0.93000007 4282659109
0.1391169 -0.1309814 0.92800003 4282264608
0.140744 -0.1309814 0.92800003 4281477404
0.14237109 -0.1309814 0.92800003 4281543197
0.14430854 -0.1312637 0.93000007 4281413153
0.14593914 -0.1312637 0.93000007 4281873704
0.14804576 -0.13168712 0.93300003 4282003235
0.14968163 -0.13168712 0.93300003 4281739806
0.15131751 -0.13168712 0.93300003 4281542432
0.15295337 -0.13168712 0.93300003 4281476639
0.15492062 -0.13196941 0.93500006 4282333481
0.15655999 -0.13196941 0.93500006 4282794032
0.15819937 -0.13196941 0.93500006 4283123496
0.16035157 -0.13239284 0.93800002 4283255083
0.16199622 -0.13239284 0.93800002 4282926115
0.16364084 -0.13239284 0.93800002 4282005013
0.16528547 -0.13239284 0.93800002 4282594591
0.16693009 -0.13239284 0.93800002 4282528797
0.16857474 -0.13239284 0.93800002 4282136099
0.17021936 -0.13239284 0.93800002 4282070306
0.171864 -0.13239284 0.93800002 4282136865
0.17350863 -0.13239284 0.93800002 4281939486
0.17515326 -0.13239284 0.93800002 4282068506
0.17679788 -0.13239284 0.93800002 4282068506
0.17844252 -0.13239284 0.93800002 4282134303
0.18008716 -0.13239284 0.93800002 4282134303
0.18115056 -0.13196941 0.93500006 4282003235
0.18278994 -0.13196941 0.93500006 4282134564
0.1844293 -0.13196941 0.93500006 4282594341
0.18666568 -0.13239284 0.93800002 4283186221
0.18831031 -0.13239284 0.93800002 4284106798
0.18934742 -0.13196941 0.93500006 4284303921
0.19098678 -0.13196941 0.93500006 4284239152
0.19262616 -0.13196941 0.93500006 4284370481
0.19426553 -0.13196941 0.93500006 4284436274
0.19590491 -0.13196941 0.93500006 4284436274
0.19754429 -0.13196941 0.93500006 4284436272
0.19918366 -0.13196941 0.93500006 4284370479
0.20082302 -0.13196941 0.93500006 4284501036
0.20311199 -0.13239284 0.93800002 4284632622
0.20475663 -0.13239284 0.93800002 4284502317
0.20684136 -0.13267514 0.94000006 4284436524
0.20848949 -0.13267514 0.94000006 4284829483
0.21013764 -0.13267514 0.94000006 4284368932
0.21178578 -0.13267514 0.94000006 4282523144
0.21479625 -0.13352199 0.94600004 4283970846
0.0072982721 -0.12893614 0.92500007 4284830778
0.0088718925 -0.12823917 0.92000002 4284567862
0.010462171 -0.1279604 0.91800004 4284894774
0.012071736 -0.1279604 0.91800004 4284894774
0.01363659 -0.12754223 0.91500002 4284894261
0.015240895 -0.12754223 0.91500002 4284631089
0.0168452 -0.12754223 0.91500002 4281341968
0.018348688 -0.12684527 0.91000003 4281276175
0.019944225 -0.12684527 0.91000003 4284174401
0.021539764 -0.12684527 0.91000003 4284174401
0.023211572 -0.12726346 0.91300005 4284634171
0.024812371 -0.12726346 0.91300005 4284634171
0.02647103 -0.12754223 0.91500002 4284699197
0.028075334 -0.12754223 0.91500002 4284633404
0.029679637 -0.12754223 0.91500002 4284829754
0.031283945 -0.12754223 0.91500002 4284829754
0.032996077 -0.1279604 0.91800004 4284894774
0.034605645 -0.1279604 0.91800004 4284960824
0.036215208 -0.1279604 0.91800004 4285026615
0.037824776 -0.1279604 0.91800004 4285026615
0.03943434 -0.1279604 0.91800004 4284961333
0.0410439 -0.1279604 0.91800004 4284830004
0.042653468 -0.1279604 0.91800004 4284437560
0.044263031 -0.1279604 0.91800004 4284239924
0.045872599 -0.1279604 0.91800004 4284499767
0.047482163 -0.1279604 0.91800004 4284368180
0.048931297 -0.12754223 0.91500002 4284235829
0.050535601 -0.12754223 0.91500002 4283906864
0.052139904 -0.12754223 0.91500002 4283185708
0.053744208 -0.12754223 0.91500002 4283054121
0.055348516 -0.12754223 0.91500002 4282530092
0.056952823 -0.12754223 0.91500002 4282266663
0.058557119 -0.12754223 0.91500002 4282528043
0.060161427 -0.12754223 0.91500002 4282396457
0.061765734 -0.12754223 0.91500002 4282528555
0.063370042 -0.12754223 0.91500002 4282068004
0.065187372 -0.1279604 0.91800004 4282200105
0.066796936 -0.1279604 0.91800004 4281805347
0.068406507 -0.1279604 0.91800004 4282528041
0.070168607 -0.12823917 0.92000002 4282594091
0.07178168 -0.12823917 0.92000002 4282462500
0.073394753 -0.12823917 0.92000002 4282396707
0.075252414 -0.12865736 0.92300004 4281806885
0.07703732 -0.12893614 0.92500007 4281872678
0.078659154 -0.12893614 0.92500007 4281741605
0.080280989 -0.12893614 0.92500007 4281741605
0.081902832 -0.12893614 0.92500007 4282264354
0.083524674 -0.12893614 0.92500007 4282198560
0.085146509 -0.12893614 0.92500007 4283054888
0.087049752 -0.1293543 0.92800003 4283054888
0.088676848 -0.1293543 0.92800003 4283317277
0.09030395 -0.1293543 0.92800003 4283119899
0.091931053 -0.1293543 0.92800003 4282727205
0.09355814 -0.1293543 0.92800003 4282003483
0.095185243 -0.1293543 0.92800003 4281805088
0.097020991 -0.12963308 0.93000007 4281739295
0.098651595 -0.12963308 0.93000007 4281805090
0.10082135 -0.13033004 0.93500006 4281936419
0.10246073 -0.13033004 0.93500006 4281412901
0.1041001 -0.13033004 0.93500006 4281412901
0.10573947 -0.13033004 0.93500006 4281412129
0.10737884 -0.13033004 0.93500006 4281280287
0.10901821 -0.13033004 0.93500006 4281936156
0.11065758 -0.13033004 0.93500006 4282396707
0.11229695 -0.13033004 0.93500006 4282003746
0.11393633 -0.13033004 0.93500006 4281937953
0.11557569 -0.13033004 0.93500006 4281939236
0.11721506 -0.13033004 0.93500006 4282268201
0.1186002 -0.13005126 0.93300003 4282727203
0.12049381 -0.13033004 0.93500006 4282792996
0.12213318 -0.13033004 0.93500006 4282859046
0.12377256 -0.13033004 0.93500006 4282859046
0.12541193 -0.13033004 0.93500006 4283121198
0.12705129 -0.13033004 0.93500006 4282857769
0.12869067 -0.13033004 0.93500006 4282463784
0.13033004 -0.13033004 0.93500006 4282266404
0.13196941 -0.13033004 0.93500006 4282004259
0.13360879 -0.13033004 0.93500006 4281807137
0.13524815 -0.13033004 0.93500006 4281871906
0.13688752 -0.13033004 0.93500006 4282003748
0.13823058 -0.13005126 0.93300003 4282396194
0.13986644 -0.13005126 0.93300003 4282198558
0.14150232 -0.13005126 0.93300003 4281674013
0.14313819 -0.13005126 0.93300003 4281542684
0.14477403 -0.13005126 0.93300003 4281412642
0.1464099 -0.13005126 0.93300003 4281478435
0.14836313 -0.13033004 0.93500006 4281543458
0.15000249 -0.13033004 0.93500006 4281412129
0.15164188 -0.13033004 0.93500006 4281412129
0.15328126 -0.13033004 0.93500006 4281675044
0.15492062 -0.13033004 0.93500006 4282202406
0.15706231 -0.1307482 0.93800002 4282662957
0.15870695 -0.1307482 0.93800002 4283125293
0.16035157 -0.1307482 0.93800002 4283191086
0.16234162 -0.131027 0.94000006 4283188258
0.16398977 -0.131027 0.94000006 4282793500
0.16563791 -0.131027 0.94000006 4282791713
0.16728604 -0.131027 0.94000006 4282594591
0.16893418 -0.131027 0.94000006 4282530857
0.17058232 -0.131027 0.94000006 4282267686
0.17223045 -0.131027 0.94000006 4282466082
0.1738786 -0.131027 0.94000006 4282202910
0.17552674 -0.131027 0.94000006 4282266139
0.17717487 -0.131027 0.94000006 4282134553
0.17882301 -0.131027 0.94000006 4282397218
0.18047115 -0.131027 0.94000006 4282200096
0.18211928 -0.131027 0.94000006 4282266402
0.18376742 -0.131027 0.94000006 4282464038
0.18600731 -0.13144515 0.94300002 4283056168
0.18766069 -0.13144515 0.94300002 4283516719
0.1893141 -0.13144515 0.94300002 4284303661
0.1909675 -0.13144515 0.94300002 4284369455
0.19200812 -0.131027 0.94000006 4284238898
0.19365625 -0.131027 0.94000006 4284370227
0.19592768 -0.13144515 0.94300002 4284501556
0.19758108 -0.13144515 0.94300002 4284501556
0.19923449 -0.13144515 0.94300002 4284435763
0.20088789 -0.13144515 0.94300002 4284369714
0.20189695 -0.131027 0.94000006 4284500784
0.20354508 -0.131027 0.94000006 4284632370
0.20584808 -0.13144515 0.94300002 4284566827
0.20750149 -0.13144515 0.94300002 4284566827
0.20982027 -0.13186333 0.94600004 4284764976
0.21147893 -0.13186333 0.94600004 4283120151
0.21313758 -0.13186333 0.94600004 4282329617
0.21525036 -0.13214211 0.94800007 4283645477
0.0072982721 -0.1273143 0.92500007 4284766009
0.008900824 -0.12703903 0.92300004 4284437044
0.010519154 -0.12703903 0.92300004 4284698676
0.012137486 -0.12703903 0.92300004 4284698676
0.013711107 -0.1266261 0.92000002 4284698163
0.015324178 -0.1266261 0.92000002 4284764212
0.016900431 -0.12635083 0.91800004 4281474322
0.018449504 -0.12593792 0.91500002 4281079564
0.02005381 -0.12593792 0.91500002 4283651137
0.021658113 -0.12593792 0.91500002 4283651137
0.023262419 -0.12593792 0.91500002 4284633404
0.024948256 -0.12635083 0.91800004 4284633404
0.026557818 -0.12635083 0.91800004 4284633152
0.028167384 -0.12635083 0.91800004 4284699201
0.029776951 -0.12635083 0.91800004 4285026367
0.031386513 -0.12635083 0.91800004 4284960318
0.032996077 -0.12635083 0.91800004 4284961337
0.034681037 -0.1266261 0.92000002 4284961337
0.036412459 -0.12703903 0.92300004 4285026615
0.038030788 -0.12703903 0.92300004 4285026615
0.039649121 -0.12703903 0.92300004 4284764724
0.041267455 -0.12703903 0.92300004 4284567601
0.042885784 -0.12703903 0.92300004 4284042802
0.044504117 -0.12703903 0.92300004 4283648044
0.04612245 -0.12703903 0.92300004 4283645743
0.047740776 -0.12703903 0.92300004 4283514157
0.049466066 -0.1273143 0.92500007 4283382319
0.051087905 -0.1273143 0.92500007 4283119147
0.052709743 -0.1273143 0.92500007 4282725672
0.054331582 -0.1273143 0.92500007 4282330914
0.055953417 -0.1273143 0.92500007 4282199072
0.057575256 -0.1273143 0.92500007 4281870363
0.059197091 -0.1273143 0.92500007 4282003235
0.060818937 -0.1273143 0.92500007 4282266150
0.062440772 -0.1273143 0.92500007 4282464549
0.064270377 -0.1277272 0.92800003 4282793514
0.065897472 -0.1277272 0.92800003 4282067994
0.067306288 -0.1273143 0.92500007 4282265117
0.06892813 -0.1273143 0.92500007 4282794534
0.070549965 -0.1273143 0.92500007 4283189292
0.0721718 -0.1273143 0.92500007 4283055653
0.073793635 -0.1273143 0.92500007 4282463515
0.075415477 -0.1273143 0.92500007 4281413924
0.077287167 -0.1277272 0.92800003 4281282337
0.078914262 -0.1277272 0.92800003 4281675298
0.080541357 -0.1277272 0.92800003 4281675298
0.08216846 -0.1277272 0.92800003 4281936417
0.083795555 -0.1277272 0.92800003 4281607453
0.08542265 -0.1277272 0.92800003 4281478683
0.087049752 -0.1277272 0.92800003 4283255094
0.08886797 -0.12800248 0.93000007 4284368167
0.090790503 -0.12841539 0.93300003 4284500009
0.09242636 -0.12841539 0.93300003 4283580452
0.094062231 -0.12841539 0.93300003 4282395921
0.095698096 -0.12841539 0.93300003 4281935391
0.097542614 -0.12869067 0.93500006 4281869598
0.099181987 -0.12869067 0.93500006 4281869859
0.10114484 -0.12910359 0.93800002 4282001445
0.10278947 -0.12910359 0.93800002 4281544228
0.1044341 -0.12910359 0.93800002 4281478435
0.10607874 -0.12910359 0.93800002 4281673761
0.10772337 -0.12910359 0.93800002 4281673761
0.109368 -0.12910359 0.93800002 4282134051
0.11101263 -0.12910359 0.93800002 4282923566
0.11265726 -0.12910359 0.93800002 4282463784
0.11393633 -0.12869067 0.93500006 4282397991
0.11557569 -0.12869067 0.93500006 4282137896
0.11721506 -0.12869067 0.93500006 4282269482
0.11885444 -0.12869067 0.93500006 4282727203
0.12049381 -0.12869067 0.93500006 4282661410
0.12213318 -0.12869067 0.93500006 4282856997
0.12416968 -0.12910359 0.93800002 4282988326
0.12581432 -0.12910359 0.93800002 4282923053
0.12745894 -0.12910359 0.93800002 4282594089
0.12910359 -0.12910359 0.93800002 4282003496
0.1307482 -0.12910359 0.93800002 4281937703
0.13239284 -0.12910359 0.93800002 4281544228
0.13360879 -0.12869067 0.93500006 4281478435
0.13524815 -0.12869067 0.93500006 4281936417
0.13688752 -0.12869067 0.93500006 4282134053
0.1385269 -0.12869067 0.93500006 4282264867
0.14016627 -0.12869067 0.93500006 4282001951
0.14180563 -0.12869067 0.93500006 4281739806
0.14344501 -0.12869067 0.93500006 4281739806
0.14508438 -0.12869067 0.93500006 4281412894
0.14719453 -0.12910359 0.93800002 4281346845
0.14883915 -0.12910359 0.93800002 4281281824
0.15048379 -0.12910359 0.93800002 4281281824
0.15212841 -0.12910359 0.93800002 4281281826
0.15410094 -0.12937886 0.94000006 4281544742
0.15574907 -0.12937886 0.94000006 4281939751
0.15789953 -0.12979177 0.94300002 4282466096
0.15955293 -0.12979177 0.94300002 4282005029
0.16120633 -0.12979177 0.94300002 4282136359
0.16337785 -0.13020468 0.94600004 4282791463
0.1650365 -0.13020468 0.94600004 4282857256
0.16669516 -0.13020468 0.94600004 4282725670
0.16835381 -0.13020468 0.94600004 4282528547
0.17001247 -0.13020468 0.94600004 4282200355
0.17167114 -0.13020468 0.94600004 4282266404
0.17332979 -0.13020468 0.94600004 4282398756
0.17498845 -0.13020468 0.94600004 4282332963
0.1766471 -0.13020468 0.94600004 4282463265
0.17830577 -0.13020468 0.94600004 4282463265
0.17996442 -0.13020468 0.94600004 4282332711
0.18162309 -0.13020468 0.94600004 4282135332
0.18328173 -0.13020468 0.94600004 4282793512
0.1849404 -0.13020468 0.94600004 4283254063
0.18659906 -0.13020468 0.94600004 4283977005
0.18825771 -0.13020468 0.94600004 4284043054
0.18991637 -0.13020468 0.94600004 4284501036
0.1909675 -0.12979177 0.94300002 4284566829
0.1926209 -0.12979177 0.94300002 4284370479
0.19427429 -0.12979177 0.94300002 4284436272
0.19592768 -0.12979177 0.94300002 4284436274
0.19820966 -0.13020468 0.94600004 4284436274
0.19986832 -0.13020468 0.94600004 4284566579
0.20152698 -0.13020468 0.94600004 4284566579
0.20318563 -0.13020468 0.94600004 4284435761
0.2048443 -0.13020468 0.94600004 4284435761
0.20693955 -0.13047996 0.94800007 4284566827
0.20926183 -0.13089286 0.95100003 4284501034
0.21092926 -0.13089286 0.95100003 4284961853
0.21192604 -0.13047996 0.94800007 4281080066
0.21358821 -0.13047996 0.94800007 4281677345
0.21593153 -0.13089286 0.95100003 4282993205
0.0073219417 -0.12610011 0.92800003 4285093173
0.0089201108 -0.12569247 0.92500007 4284764208
0.010541948 -0.12569247 0.92500007 4284698676
0.012163786 -0.12569247 0.92500007 4284698676
0.013785625 -0.12569247 0.92500007 4284370997
0.015407463 -0.12569247 0.92500007 4284699962
0.016992481 -0.12542069 0.92300004 4281870102
0.018550321 -0.12501304 0.92000002 4280554242
0.020119559 -0.12474127 0.91800004 4284176709
0.021729125 -0.12474127 0.91800004 4283781951
0.02333869 -0.12474127 0.91800004 4284698680
0.024948256 -0.12474127 0.91800004 4284698680
0.026615679 -0.12501304 0.92000002 4284764222
0.02822875 -0.12501304 0.92000002 4284830015
0.029841822 -0.12501304 0.92000002 4285026365
0.031557463 -0.12542069 0.92300004 4284960572
0.033175796 -0.12542069 0.92300004 4285157431
0.034794129 -0.12542069 0.92300004 4285157431
0.036491361 -0.12569247 0.92500007 4284960822
0.038113199 -0.12569247 0.92500007 4284895028
0.039735038 -0.12569247 0.92500007 4284502065
0.041356873 -0.12569247 0.92500007 4284173357
0.042978715 -0.12569247 0.92500007 4283646758
0.04460055 -0.12569247 0.92500007 4283186207
0.046222389 -0.12569247 0.92500007 4282988326
0.047844227 -0.12569247 0.92500007 4283054119
0.049626496 -0.12610011 0.92800003 4282726190
0.051253591 -0.12610011 0.92800003 4282528555
0.052880693 -0.12610011 0.92800003 4282397739
0.054507788 -0.12610011 0.92800003 4282200359
