# .PCD v0.7 - Point Cloud Data file format
VERSION 0.7
FIELDS x y z rgba
SIZE 4 4 4 4
TYPE F F F U
COUNT 1 1 1 1
WIDTH 835
HEIGHT 1
VIEWPOINT 0 0 0 1 0 0 0
POINTS 835
DATA ascii
-0.36484835 0.36567256 0.86621052 12758184
-0.39554229 0.3579891 0.87620008 12693164
-0.38625783 0.35846707 0.87678581 13021870
-0.37534192 0.3586233 0.87775016 12693933
-0.3655678 0.3584263 0.8774547 12692907
-0.35689902 0.35899022 0.87762511 13153718
-0.34477735 0.3583127 0.8774001 13153458
-0.33627737 0.35904571 0.87725008 12825270
-0.32611433 0.35956189 0.87800008 12694455
-0.37595588 0.36166838 0.87300014 12823977
-0.36478055 0.36159614 0.87308711 12562089
-0.35483766 0.3630558 0.87319994 12825264
-0.34523827 0.36386079 0.87361109 12825266
-0.33513376 0.36315829 0.87317646 12824753
-0.3246406 0.36315572 0.87291658 12759733
-0.31519553 0.36471105 0.87432343 13154490
-0.30550638 0.36471158 0.8752259 13023674
-0.29444799 0.36466399 0.87407166 13024188
-0.28493458 0.36539596 0.87384361 13221310
-0.27563289 0.36729684 0.87452936 13352124
-0.26565933 0.36822665 0.8745715 13023679
-0.44383654 0.34719443 0.88683337 12759466
-0.43490815 0.34723538 0.88787997 13153713
-0.42509538 0.34805387 0.88650012 12760491
-0.41477323 0.34782237 0.88644993 12825778
-0.40927809 0.34906381 0.88425004 13220021
-0.39241144 0.34927908 0.88800007 13416887
-0.384727 0.34921363 0.88783336 13286069
-0.37592003 0.34882671 0.88900012 13220280
-0.3217333 0.34882671 0.88900012 13615558
-0.38473874 0.35409334 0.88248599 13088434
-0.37489617 0.35351428 0.88381416 13088179
-0.36489135 0.35440201 0.88374293 12890798
-0.3548764 0.35499313 0.88360995 13416634
-0.34473425 0.3543762 0.88460004 13350839
-0.33494589 0.35539639 0.88524431 13088441
-0.32475314 0.35463059 0.88425571 13089213
-0.31533545 0.35489735 0.8844043 13549762
-0.30546811 0.35617656 0.88529998 13614787
-0.29563338 0.35782987 0.88586211 13483969
-0.28543621 0.35907105 0.88792312 13419201
-0.32071114 0.36093974 0.88000011 13154490
-0.31442776 0.36136973 0.88018191 13286076
-0.3039723 0.36129186 0.8803637 13353410
-0.29472822 0.36142004 0.88083339 13418171
-0.28511801 0.3615973 0.88200015 13352382
-0.45242095 0.33867431 0.89800012 13745074
-0.44556448 0.33840001 0.89777797 13153968
-0.43554285 0.33856601 0.89771444 12826035
-0.44560587 0.34284148 0.89418548 12956849
-0.43471774 0.34240133 0.89420027 13153971
-0.42497906 0.34359872 0.89459497 13153971
-0.4144989 0.34355375 0.89405745 13285557
-0.39486346 0.34645626 0.89455569 13351606
-0.38519216 0.34498483 0.89491683 13220280
-0.37496758 0.3456755 0.89429063 13417149
-0.36531618 0.34657755 0.89413905 12957109
-0.35525736 0.34668925 0.89411455 13482686
-0.34538129 0.34793377 0.89417881 13285564
-0.33502609 0.34840035 0.89547378 13088442
-0.32503867 0.34831759 0.89433342 13680579
-0.31538635 0.34852502 0.89436376 13878216
-0.30555612 0.34860119 0.89495009 13878728
-0.29608637 0.34909216 0.89766687 13879754
-0.28351581 0.34845451 0.89720011 13682121
-0.27709717 0.34893721 0.89800012 14010315
-0.35555148 0.35130861 0.89099997 13351868
-0.34621716 0.35130861 0.89099997 13417663
-0.33522448 0.3512539 0.89271432 13088695
-0.31227431 0.35130861 0.89099997 13812680
-0.30366501 0.35186997 0.89242852 13812680
-0.294732 0.35337359 0.89442462 13616071
-0.28479692 0.35442424 0.89385021 13550536
-0.25556269 0.3568458 0.89559388 13549512
-0.45508358 0.33471352 0.90382886 13089459
-0.44524702 0.33489946 0.90340638 13351606
-0.43476656 0.33553746 0.90473717 13089207
-0.42490995 0.33578971 0.90537238 13417914
-0.41535786 0.33734751 0.90460622 13286330
-0.40554178 0.33749613 0.90600002 13548219
-0.39495564 0.33754408 0.90452021 13746366
-0.3850686 0.33810249 0.90380019 13878208
-0.37498471 0.33749923 0.90522242 13615810
-0.364896 0.33821929 0.90672219 13550017
-0.35507265 0.33799911 0.90638882 14009798
-0.34575692 0.33803132 0.90642107 13879239
-0.33796877 0.33934897 0.90620005 14009544
-0.32235241 0.33959049 0.90499997 14142669
-0.38410288 0.34161621 0.90125 13548730
-0.37434056 0.34203932 0.90206659 13549241
-0.36505744 0.34220055 0.9025293 13352120
-0.35432494 0.34212929 0.90170002 14009025
-0.34467849 0.34334072 0.90211105 13548992
-0.33484551 0.34369186 0.90337175 13483459
-0.32521316 0.34354511 0.90337515 14009799
-0.31569734 0.3443957 0.90457165 14141899
-0.30506223 0.34534249 0.90435481 13812936
-0.29529196 0.34563136 0.90387887 13944521
-0.2852563 0.34680381 0.90387499 13945034
-0.27499017 0.34833342 0.90483326 13747658
-0.26522857 0.34925658 0.9059999 13944524
-0.25542191 0.34903172 0.90649992 13878216
-0.24704766 0.34916934 0.90700001 13879499
-0.2917524 0.35010281 0.90100002 13878474
-0.27329201 0.35130554 0.90157145 13944010
-0.26467806 0.35179746 0.90153331 13878472
-0.25465447 0.35249987 0.90205264 13747147
-0.47587624 0.32731655 0.91487521 13417914
-0.46458027 0.32720393 0.91375005 13286844
-0.45463353 0.32655534 0.91356677 13352382
-0.44531268 0.32589653 0.91378802 13418172
-0.43516994 0.3265357 0.9139716 13483458
-0.42524523 0.32760665 0.91420698 13418433
-0.41471177 0.32828104 0.91600001 13616321
-0.4075124 0.32832167 0.91625005 13484221
-0.45153335 0.3310667 0.91000003 13485241
-0.44418079 0.33180159 0.910923 13614520
-0.43506664 0.3310667 0.91000003 13418172
-0.42640004 0.3310667 0.91000003 13680575
-0.41477901 0.33230254 0.91230786 13680830
-0.4049263 0.33268717 0.91300005 13812416
-0.39561194 0.33343285 0.91357702 13944001
-0.38564143 0.33417761 0.91427588 13878212
-0.37511972 0.33425274 0.91463637 13813705
-0.36493689 0.33467376 0.91299999 13681091
-0.35506073 0.33398536 0.91307694 14010568
-0.34458736 0.3347868 0.91263634 14273229
-0.33519685 0.33612955 0.91351277 14273227
-0.32517746 0.33704567 0.91310352 14010314
-0.31569406 0.3371309 0.91341943 14142158
-0.30609769 0.33836618 0.9145714 14076879
-0.29508212 0.33935523 0.91600007 14077390
-0.28765675 0.33863515 0.91588902 14011342
-0.31288901 0.34162667 0.91042852 14075595
-0.30413952 0.34123671 0.91112506 14141388
-0.29463834 0.34217718 0.91259992 14076365
-0.49503905 0.31801227 0.92607147 13352895
-0.48527476 0.31831083 0.92547619 13483969
-0.47556576 0.31930003 0.92699999 13418688
-0.46526575 0.31959429 0.92699999 13617092
-0.45404086 0.31934205 0.92699999 13944516
-0.44495997 0.31880957 0.92699993 13747137
-0.43517527 0.31761315 0.92637503 13878214
-0.42781171 0.31915894 0.92428577 13681858
-0.41435432 0.31959429 0.92699999 13746375
-0.40699717 0.31959429 0.92699999 13814469
-0.47487956 0.3225269 0.92180771 13353150
-0.46533883 0.32302022 0.92288017 13353408
-0.45485994 0.32188144 0.92400008 13878213
-0.44483969 0.32198304 0.92406672 13812417
-0.43471166 0.32169276 0.92149997 13615554
-0.42419544 0.32328969 0.9216401 13550790
-0.41513753 0.32369235 0.92265612 13484737
-0.40424082 0.32433748 0.92218912 13615043
-0.39529824 0.32590193 0.92297077 13878726
-0.38486254 0.32551458 0.92216206 14075850
-0.37572646 0.32701924 0.92429179 14208206
-0.36420578 0.32720041 0.92504996 14141131
-0.35479984 0.32761618 0.9245218 14206153
-0.34445453 0.32806623 0.92570591 14603221
-0.33460706 0.32806784 0.92629415 14404818
-0.32630384 0.32894957 0.92600006 14535892
-0.38464761 0.3312 0.92000002 13878468
-0.3739799 0.3312569 0.92085713 14010315
-0.36517122 0.33162338 0.92087501 13746886
-0.35435051 0.331236 0.92054552 14206665
-0.3450405 0.33151913 0.92117643 14405071
-0.33450827 0.3316538 0.921875 14339280
-0.32484367 0.3322705 0.92254549 14273744
-0.31468266 0.33324692 0.92315984 14142156
-0.3044984 0.33436647 0.92258608 14207950
-0.29563856 0.3344101 0.92313528 14208206
-0.28472176 0.33587149 0.92348635 13945292
-0.27538869 0.33647102 0.92393547 13944781
-0.50330287 0.30831763 0.93699998 13945548
-0.49574271 0.30821678 0.93681818 13945030
-0.48813239 0.3087638 0.93699998 13682379
-0.4640381 0.3087638 0.93699998 13945288
-0.44619045 0.3087638 0.93699998 14206411
-0.43815905 0.3087638 0.93699998 14534603
-0.49510443 0.31340688 0.93362063 13747911
-0.48459491 0.31367898 0.93352938 13681864
-0.47485107 0.31472132 0.93379486 13747912
-0.46493667 0.31482726 0.93397504 13945290
-0.45565876 0.3148075 0.93378133 13944517
-0.4458302 0.31408226 0.93397236 14141641
-0.43453515 0.31354606 0.93365633 14207434
-0.42571387 0.31793094 0.93430442 13812676
-0.41457134 0.31685179 0.93475991 14010825
-0.40480831 0.31693465 0.93440747 14141644
-0.39535725 0.31831914 0.93450016 14339534
-0.38485098 0.31853992 0.93507707 14141644
-0.37639239 0.31887445 0.9357273 14339281
-0.36399481 0.31849477 0.93674994 14208465
-0.35508525 0.31859618 0.93443763 14010567
-0.34671429 0.31906131 0.93666667 14405332
-0.42346668 0.3206172 0.93100011 13813186
-0.41717151 0.32062861 0.93000013 13812932
-0.4021143 0.32062861 0.93000013 13878720
-0.39511356 0.3215833 0.93020022 13945030
-0.38456148 0.32164955 0.9313848 14272713
-0.37441677 0.32293695 0.93192858 14339535
-0.36516452 0.32283589 0.93260872 14141645
-0.3545692 0.32348579 0.93119067 14076619
-0.34489191 0.32317564 0.93241936 14668758
-0.33478433 0.32359102 0.93307394 14536916
-0.3248899 0.3255522 0.93318766 14273743
-0.3151134 0.32540089 0.93355268 14142415
-0.30539516 0.32629788 0.93297058 14207697
-0.29729271 0.32780012 0.93531263 14207952
-0.28206453 0.32799688 0.93649995 14404302
-0.27657312 0.32867792 0.93611115 14273487
-0.28551939 0.33132699 0.93220019 13879499
-0.27408102 0.33211079 0.93218189 14077391
-0.50496286 0.30478317 0.94472402 13879755
-0.49487203 0.30510843 0.944875 14011596
-0.48484245 0.30591246 0.94422591 13813191
-0.47502488 0.30569464 0.94338459 13813960
-0.46490628 0.30597639 0.94260621 13944774
-0.45506153 0.30554348 0.94227284 14009542
-0.44474381 0.30527666 0.94294614 14273739
-0.43572551 0.30693516 0.94375008 14667986
-0.42555887 0.3089425 0.94630003 14470095
-0.41641286 0.30927145 0.94537508 14600909
-0.40426284 0.30924734 0.94628578 14207948
-0.39728409 0.30882692 0.94500005 14405072
-0.4529905 0.3115429 0.94000012 14075852
-0.43121275 0.31176257 0.94066674 14207949
-0.42517263 0.31303549 0.94076955 14141387
-0.41466695 0.31228077 0.94223821 14273485
-0.40466508 0.31246397 0.94188905 14470352
-0.39433795 0.31356627 0.94169712 14339536
-0.38527408 0.31408715 0.94312501 14339022
-0.37505803 0.31509399 0.94374192 14208464
-0.36551738 0.31470084 0.94432145 14273745
-0.35578996 0.31598914 0.94340026 14010829
-0.34522691 0.31736341 0.94379169 14536148
-0.33509222 0.31790465 0.94513643 14405586
-0.32494974 0.31801665 0.94515002 14470868
-0.31471404 0.31821689 0.94499987 14339535
-0.30503821 0.31853354 0.94481266 14404815
-0.29807544 0.31931776 0.94499999 14470610
-0.27176005 0.31961149 0.94800007 14536407
-0.34108573 0.32049519 0.94000012 14274773
-0.3340517 0.32100675 0.94000012 14208462
-0.32504034 0.32127959 0.94020015 14010831
-0.31512383 0.32049519 0.94000018 14142924
-0.30462986 0.32218334 0.94040024 14273747
-0.2747578 0.32461175 0.943973 14274001
-0.51352537 0.29690376 0.95490503 13879757
-0.50500822 0.29684126 0.9554233 14207950
-0.49521044 0.29728922 0.95583349 14142156
-0.48500246 0.29802409 0.95576477 14208208
-0.47510573 0.29754165 0.95504355 14076621
-0.46525294 0.29746008 0.95531583 14075854
-0.45522255 0.29791474 0.95547831 14207439
-0.44508618 0.29779387 0.95605886 14208208
-0.43976769 0.299261 0.95800012 14471378
-0.50515872 0.30068257 0.94999999 14075852
-0.49451706 0.30063948 0.94999993 14077133
-0.48535454 0.30118525 0.94999993 14208462
-0.47500002 0.30038098 0.94999999 14011082
-0.46504766 0.30128574 0.94999993 13418439
-0.45455235 0.30110478 0.94999993 14074572
-0.44484052 0.3009038 0.95218182 14273998
-0.43440339 0.30424625 0.95328009 14536916
-0.42474592 0.30478883 0.95311135 14799058
-0.41540629 0.30604228 0.95400029 14405583
-0.40467429 0.30587342 0.9543913 14602964
-0.39483881 0.3059254 0.95425743 14405073
-0.38532412 0.3071644 0.95423096 14602196
-0.37467691 0.30751887 0.95404571 14537171
-0.36500356 0.3074151 0.95392329 14668756
-0.35512513 0.30780479 0.95550007 14470608
-0.3492572 0.30923811 0.95499998 13946315
-0.38361907 0.31123811 0.94999999 14798547
-0.37523705 0.31145519 0.95066667 14273747
-0.36311111 0.31153968 0.94999999 14340048
-0.35467994 0.31242356 0.9513638 14076107
-0.34518644 0.31270948 0.95323092 14471380
-0.33461532 0.31268471 0.95386237 14602712
-0.32480729 0.31314951 0.95375878 14471638
-0.31528062 0.31404233 0.95348024 14471637
-0.30459821 0.31523725 0.95290929 14274513
-0.29514632 0.31619966 0.95441943 14142671
-0.27468792 0.31743744 0.95414305 14734554
-0.26510575 0.31808308 0.95493758 14339285
-0.27685714 0.32028571 0.94999999 14602454
-0.51404083 0.28873554 0.96728569 14339787
-0.50533396 0.28854468 0.96452957 14077389
-0.49554929 0.28858182 0.96693748 14274259
-0.48483321 0.2881273 0.96642846 14207950
-0.47584939 0.28872535 0.96857131 14076365
-0.46490285 0.28749716 0.96899998 14273485
-0.45546547 0.28849936 0.96899992 14273743
-0.44758576 0.28977719 0.96899998 14668247
-0.51593775 0.29244345 0.96280009 14208464
-0.50475377 0.29241857 0.96100014 14339791
-0.49456614 0.29291624 0.96200025 14142670
-0.48500904 0.29335693 0.96163177 14274514
-0.47469541 0.29284301 0.9635219 14011342
-0.46531543 0.29339623 0.96508682 14273486
-0.45506975 0.29345283 0.96416664 14208464
-0.44491667 0.29472539 0.96551847 14405074
-0.43529776 0.29749537 0.96663141 14734296
-0.4249211 0.29736876 0.96490002 14601938
-0.41519713 0.29816297 0.96542871 14668500
-0.40531343 0.29821712 0.96553856 14471637
-0.39602244 0.29914159 0.96669227 14471637
-0.38415915 0.29907343 0.96784598 14602710
-0.37431997 0.29890573 0.96570003 14799833
-0.36618289 0.2991581 0.9684999 14668504
-0.35456499 0.2992343 0.96824992 14733525
-0.3462694 0.29939756 0.96771425 14338511
-0.42507723 0.30101168 0.96100003 14470354
-0.41402385 0.30222112 0.96125025 14668498
-0.40561086 0.30175257 0.96118188 14601682
-0.39482459 0.30135134 0.96225017 14339025
-0.38466319 0.30310595 0.96216667 14668244
-0.37526143 0.30298445 0.96238089 14734294
-0.36485836 0.30283085 0.9647916 14734297
-0.35494873 0.30368289 0.96357137 14536658
-0.34497523 0.30528584 0.96431571 14667734
-0.33545437 0.30609411 0.96509671 14602456
-0.32479745 0.3062515 0.96409678 14668505
-0.31534129 0.30761448 0.96567976 15195104
-0.30506003 0.30815142 0.96586359 14931931
-0.27501151 0.3082343 0.96899998 14799831
-0.57503432 0.27728191 0.97700006 14142667
-0.51490206 0.2856313 0.97442102 14208464
-0.5047968 0.28475234 0.97450006 14273487
-0.49540946 0.28488997 0.97489488 14208207
-0.48573336 0.28474948 0.97561544 14077135
-0.4748601 0.28467229 0.97365016 14338768
-0.46517482 0.28273037 0.97405559 14471379
-0.45521179 0.28558126 0.97357899 14470864
-0.44610128 0.28848109 0.97450012 14864853
-0.43523952 0.2889764 0.97536367 14602967
-0.42576122 0.28833616 0.97662514 14931932
-0.41499236 0.28844759 0.97700012 14932444
-0.44313487 0.29251999 0.9726001 14799578
-0.43502924 0.292934 0.97233349 14799832
-0.4247303 0.2929711 0.97373074 14931674
-0.41462135 0.29355711 0.97379988 14668502
-0.40535221 0.29438308 0.97433329 14733526
-0.39471909 0.29549763 0.97399992 14668759
-0.38532552 0.2948547 0.97407991 14471639
-0.37502643 0.29667956 0.97416675 14668762
-0.3652117 0.29712009 0.97493345 14800859
-0.35605875 0.2973811 0.97438473 14734809
-0.34461576 0.29827255 0.9731819 14339542
-0.33495525 0.29784194 0.97425002 15063515
-0.32436821 0.29829159 0.97376478 14866395
-0.31505048 0.29868501 0.97640008 14931675
-0.30649751 0.29868498 0.97640008 14668764
-0.32462248 0.30221486 0.9722001 14735320
-0.31488863 0.30288839 0.97305268 14866907
-0.57379138 0.27579007 0.98338097 14274512
-0.55473 0.27638173 0.98534799 14275286
-0.54495537 0.27588081 0.98555565 14471637
-0.53490096 0.27603963 0.98561561 14471635
-0.52492803 0.27613825 0.98519236 14471635
-0.51512277 0.27662259 0.98591316 14340050
-0.50518447 0.27557185 0.98504168 14405843
-0.49542117 0.27596256 0.98411113 14471381
-0.48540205 0.27802247 0.9852857 14471379
-0.47486374 0.27695698 0.98595238 14537427
-0.46517769 0.27758402 0.98634994 14602964
-0.45487493 0.27724117 0.98579997 14733786
-0.51501888 0.28147146 0.98024988 14536917
-0.50450909 0.28101823 0.9799999 14470610
-0.49429369 0.28092644 0.98027265 14274514
-0.48492858 0.28203949 0.98107135 14405076
-0.47570223 0.2810201 0.9806667 14537173
-0.4639293 0.28078812 0.98112494 14340049
-0.45461622 0.28272003 0.98199975 14405587
-0.44478634 0.28407687 0.98383796 14800598
-0.43535739 0.28443322 0.98399979 14800601
-0.42531326 0.28552809 0.98386359 14866139
-0.41493687 0.28660044 0.98469245 14996953
-0.40537381 0.28706679 0.98505253 14997465
-0.39469728 0.28676617 0.98544437 14932443
-0.3848812 0.2864534 0.98630458 14602971
-0.37508386 0.28768912 0.98671418 14865370
-0.36547625 0.28772265 0.98599994 14931679
-0.3568854 0.28889272 0.98699999 14931673
-0.33592004 0.28981331 0.98799998 15391969
-0.39492381 0.2909238 0.98136365 14865626
-0.3840864 0.29123729 0.98192841 14734043
-0.37473324 0.29271445 0.98180944 14997213
-0.36472586 0.29271272 0.9819544 14734043
-0.35454738 0.29374355 0.98274082 14669530
-0.33493379 0.29427725 0.98337036 14866655
-0.31504279 0.29514882 0.98426098 14800347
-0.30507892 0.29719347 0.98326313 14997472
-0.58311373 0.26757935 0.99469227 14077391
-0.55457377 0.26821843 0.99633324 14603221
-0.5447588 0.2676999 0.99456257 14472405
-0.53657687 0.26923415 0.99425 14603479
-0.52347106 0.26855236 0.99430007 14669018
-0.51456982 0.26855841 0.99350017 14537175
-0.50520092 0.26884985 0.99400014 14668502
-0.49527535 0.26873058 0.99666661 14669527
-0.48537332 0.2684814 0.99645442 14801374
-0.47478485 0.26769549 0.99440014 14997724
-0.46678656 0.26776883 0.99509084 15194333
-0.45767051 0.26966479 0.99699998 15784417
-0.55520624 0.27150214 0.99236387 14340305
-0.54617143 0.27178544 0.99175006 14865364
-0.53452301 0.27146026 0.99200004 14471895
-0.52391106 0.27187347 0.99190015 14602966
-0.515751 0.2721552 0.99137515 14470870
-0.50588191 0.27181709 0.99100006 14340311
-0.49414837 0.27243641 0.99250007 14602711
-0.48527676 0.27364635 0.99242854 14734039
-0.47470808 0.27235812 0.99160016 14734551
-0.46476796 0.27258947 0.99273694 14800857
-0.45451385 0.27476114 0.99447364 14865627
-0.445227 0.2781873 0.99466676 14866137
-0.43542251 0.27810553 0.99509102 14865883
-0.42583281 0.27742794 0.9961428 14865371
-0.41534367 0.27752879 0.99659985 14931162
-0.4068709 0.27868524 0.99699998 14670042
-0.39785051 0.27915999 0.99699998 15062753
-0.41495645 0.28207439 0.99306273 14931163
-0.4048169 0.28270173 0.9935714 14996954
-0.39517915 0.2825236 0.99400002 14866141
-0.38462561 0.2821689 0.99381256 14669018
-0.3757242 0.28352639 0.99457133 14799835
-0.36524346 0.28535211 0.99418765 14865882
-0.33479211 0.28740492 0.99510527 14997982
-0.31557971 0.28847867 0.99592847 15260644
-0.58367997 0.25920001 1.008 14275795
-0.57519996 0.25759995 1.0080001 14078672
-0.56496 0.25920001 1.008 14471383
-0.54144001 0.25920001 1.008 14471121
-0.53600001 0.25887999 1.008 14339026
-0.52656001 0.25920001 1.008 14668246
-0.51264 0.25920001 1.008 14603475
-0.5551737 0.26366422 1.00368 14274258
-0.54422855 0.26359168 1.0041364 14471634
-0.53476965 0.26467162 1.0033001 14537940
-0.52552497 0.26424414 1.0039631 14669271
-0.51519698 0.26417863 1.0037038 14603222
-0.50514859 0.26387474 1.0047038 14669528
-0.495363 0.2648049 1.0039566 14866652
-0.48559037 0.26489106 1.004316 14932187
-0.47589028 0.26446542 1.0042001 15063004
-0.46441182 0.26661095 1.0035791 15063004
-0.45634463 0.2673642 1.0069335 15259612
-0.44543999 0.26784 1.0080001 15127769
-0.43474284 0.26852572 1.008 14931674
-0.42624 0.26879999 1.008 14928090
-0.46190476 0.27047619 1 14800863
-0.45385483 0.27195007 1.0035001 14865626
-0.43507397 0.27324572 1.0037601 14931417
-0.42476931 0.27289596 1.0037394 15062747
-0.41479203 0.27365321 1.0049616 15128282
-0.40499452 0.27552935 1.0048401 14997212
-0.39530101 0.27579767 1.0055357 14865622
-0.38488281 0.27614209 1.0067779 14931932
-0.37510398 0.27630216 1.0068001 15062749
-0.34476912 0.27880645 1.0067002 14536146
-0.33634666 0.27937415 1.0065714 14670044
-0.32479432 0.27976379 1.006 15326691
-0.33493426 0.2829479 1.0021178 15064033
-0.59276569 0.2498914 1.017 14340821
-0.55692863 0.2498914 1.017 14669281
-0.54143143 0.2498914 1.017 14404563
-0.53852582 0.2498914 1.017 14667218
-0.52109152 0.2498914 1.017 14736604
-0.58564967 0.25541532 1.0141363 14274517
-0.57449609 0.25426447 1.0130454 14406613
-0.56458038 0.25551072 1.0136999 14472405
-0.55482113 0.25588575 1.0143104 14340818
-0.54511237 0.25545824 1.0137777 14471379
-0.5352416 0.25486213 1.0146 14601943
-0.52511579 0.25575748 1.014111 14602196
-0.51530176 0.25660139 1.0138749 14668501
-0.50528955 0.25747028 1.014125 14734293
-0.49504778 0.25649741 1.0163182 14932184
-0.48484775 0.25761715 1.0152857 14931930
-0.47534895 0.25813186 1.0164001 15128798
-0.46685144 0.25909293 1.017 15130334
-0.50024003 0.2607429 1.0140001 14931416
-0.49467722 0.26131999 1.0125 15129052
-0.48468828 0.26172632 1.012 14997723
-0.47468421 0.26269716 1.0136 14931161
-0.46528107 0.2627686 1.0143751 15063517
-0.45520481 0.26391369 1.0138334 14997982
-0.44495693 0.26513231 1.0126153 15062493
-0.43452984 0.26569465 1.0136666 14800605
-0.4248091 0.26623681 1.0137601 14997725
-0.41537848 0.26787454 1.0138571 15195103
-0.40440413 0.26730859 1.0145 14997468
-0.39616206 0.26824573 1.0142142 14734551
-0.38579145 0.26872146 1.015875 14931676
-0.37580574 0.26926291 1.017 14996696
-0.36805716 0.26926291 1.017 14799574
-0.40557066 0.27120408 1.0118572 15128797
-0.39317632 0.27147919 1.0118573 14603482
-0.3854343 0.27123937 1.0123334 14800348
-0.37452221 0.2717604 1.0135384 15063260
-0.58512884 0.24828362 1.0249091 14668761
-0.57450908 0.24837805 1.02475 14733527
-0.56491596 0.24774161 1.0247142 14865881
-0.55485183 0.24775997 1.0236429 14472150
-0.54547203 0.24848914 1.0224 14536662
-0.53550851 0.24873254 1.0242 14734294
-0.52599919 0.24878855 1.0238571 14801369
-0.51224566 0.2488057 1.0245 14932443
-0.50508457 0.24804802 1.0253999 14734299
-0.48466286 0.24819429 1.026 15127516
-0.58438778 0.2507706 1.0217142 14603482
-0.57496005 0.25099713 1.0215 14538198
-0.56569523 0.25095239 1.02 14406359
-0.55420005 0.25111431 1.02 14142932
-0.54788572 0.25062859 1.02 14342102
-0.53350943 0.25077063 1.0217142 14799575
-0.52388 0.25148141 1.0214999 14668759
-0.51447779 0.25126359 1.0225999 14800859
-0.50507629 0.25207695 1.022647 14865883
-0.49499327 0.25169784 1.023375 14931933
-0.48538283 0.25285345 1.0228698 15063518
-0.47503877 0.25416332 1.0218948 15326175
-0.46505862 0.25689143 1.0231874 14997727
-0.45570856 0.25811309 1.0249285 15326945
-0.4343794 0.25937715 1.0253999 15130083
-0.4275977 0.25952914 1.026 15195361
-0.46240002 0.26082861 1.02 15194845
-0.45362732 0.26116067 1.0206667 15523555
-0.43530753 0.26224416 1.0219092 14932960
-0.42433229 0.26215652 1.023 15260383
-0.41528699 0.26363754 1.0225714 15391970
-0.40518436 0.26332143 1.0202502 15195105
-0.38525969 0.2658892 1.0226668 14668765
-0.37524053 0.26558599 1.022182 14996956
-0.36533681 0.26681313 1.0224705 14931935
-0.56336898 0.23880512 1.039 15128793
-0.55650824 0.23867317 1.039 15063255
-0.53335333 0.2394648 1.039 14931160
-0.52444762 0.2394648 1.039 14997209
-0.55392939 0.24327552 1.0341998 14602197
-0.54494625 0.24464218 1.033577 14405845
-0.53454918 0.24457453 1.0346551 14865627
-0.52494597 0.24526131 1.0366428 14931930
-0.51504219 0.2451434 1.0345557 14997469
-0.50471586 0.24520434 1.0349286 14801631
-0.49510607 0.2458223 1.0338749 15128542
-0.48473197 0.2456542 1.0336925 14996188
-0.47514898 0.24737912 1.0345001 15260641
-0.46468768 0.24923597 1.0366666 14997728
-0.45608264 0.24915452 1.037125 15128802
-0.44627526 0.24936 1.039 15327204
-0.43638 0.24936 1.039 15393252
-0.47402766 0.2522271 1.0304998 15260897
-0.4648428 0.25328445 1.0317646 15128796
-0.45442355 0.25351682 1.0317727 15129568
-0.43506193 0.25465706 1.0333464 15195361
-0.42524728 0.25529134 1.0337501 15063775
-0.57190859 0.22856382 1.048 14602711
-0.56625271 0.22856379 1.048 14996697
-0.59529537 0.23524034 1.0450001 14603483
-0.57505292 0.23496811 1.0458572 14669273
-0.56527543 0.23473173 1.045125 14800344
-0.55489165 0.23467742 1.0452501 14865885
-0.54548949 0.23556562 1.0459601 14866137
-0.53492415 0.23533849 1.04575 14801116
-0.5248642 0.23505408 1.0444 14931929
-0.51537675 0.23636968 1.0459001 15129055
-0.50574237 0.23860726 1.0474001 15063775
-0.49470174 0.23862289 1.0472499 15195101
-0.48461053 0.23898165 1.0469999 15195358
-0.47808766 0.2395429 1.048 14931681
-0.55275619 0.2401562 1.0420001 14669528
-0.54647112 0.24048698 1.0419999 14800344
-0.53985518 0.2401562 1.0420001 14996955
-0.52000773 0.2401562 1.0420001 15195100
-0.51405334 0.2401562 1.0420001 15194844
-0.50427973 0.24071747 1.0429999 14800349
-0.49528047 0.24134561 1.0433334 15128286
-0.48497906 0.2414943 1.0434999 15260639
-0.47463477 0.2440104 1.045 15326178
-0.4551596 0.24675715 1.0441428 15524067
-0.44549173 0.24669105 1.0450001 15392484
-0.43568525 0.24741195 1.0444546 15392226
-0.42591125 0.24760453 1.0463846 15589862
-0.58476233 0.22817652 1.0569999 14931158
-0.57533383 0.22731762 1.0561249 14931673
-0.56467623 0.22807811 1.0550001 15194843
-0.55439901 0.22819069 1.0549999 14997212
-0.54449248 0.22828917 1.0555456 15064290
-0.53382969 0.22821009 1.0555999 14932699
-0.52473223 0.22807315 1.0558999 14799835
-0.5162819 0.22803567 1.0569091 15128545
-0.50640053 0.22889996 1.0576249 14865884
-0.49877146 0.2297371 1.058 15260127
-0.57776517 0.23110604 1.052 14800344
-0.56440634 0.2304381 1.052 14932442
-0.55505526 0.23043808 1.052 14866649
-0.54392296 0.23155133 1.052 14801117
-0.53468317 0.23077208 1.052 14801626
-0.52413934 0.2310106 1.052 14931411
-0.51460534 0.23276986 1.0540626 15128029
-0.50462276 0.23428988 1.0537728 15063260
-0.49464637 0.23470239 1.0543479 15260381
-0.48450953 0.2352691 1.0544286 15260896
-0.47527367 0.2375693 1.0558 15325919
-0.62283045 0.21834671 1.068 14670295
-0.61396581 0.21781062 1.0665714 14669014
-0.60757345 0.21902479 1.068 14341337
-0.59197718 0.2197029 1.068 14143447
-0.58519626 0.21936385 1.068 14603992
-0.57638097 0.21936385 1.068 15129820
-0.58531624 0.2233966 1.0636843 14735065
-0.57539451 0.22390744 1.0648 15260636
-0.55527186 0.2248619 1.0655788 15260893
-0.54495406 0.2246557 1.0657779 15327715
-0.5350005 0.22482672 1.0651875 15261664
-0.52527833 0.22566605 1.0652223 15326944
-0.51458859 0.22665235 1.0653 15063262
-0.50425893 0.22685115 1.0648462 15195103
-0.49456835 0.22725655 1.0646875 15326177
-0.48566478 0.22831087 1.0663999 15325407
-0.47805709 0.2298743 1.068 15328226
-0.4582229 0.22936572 1.068 15720424
-0.49344924 0.23106228 1.061 15260386
-0.48357904 0.23216607 1.06375 15325921
-0.45452854 0.23375447 1.0633529 15195876
-0.59538519 0.21489526 1.0749563 14866138
-0.58552611 0.21497801 1.0738999 14735067
-0.57519662 0.2157952 1.0749998 14997721
-0.56450582 0.21559866 1.0750951 14998749
-0.55481309 0.21712583 1.0748333 14997977
-0.54372871 0.21851695 1.0771999 15655911
-0.53489333 0.21867998 1.0779999 15327206
-0.52565342 0.21867998 1.0779999 15523295
-0.5153867 0.2197067 1.0779999 15259865
-0.50424004 0.21912001 1.0779999 15260638
-0.49553779 0.21936446 1.0779999 15260641
-0.57120007 0.22032 1.071 14732757
-0.56457001 0.221085 1.071 14669786
-0.5551005 0.22099102 1.0714285 14931421
-0.54415905 0.22098643 1.073 15261668
-0.5342226 0.22191048 1.0732223 15393254
-0.51522028 0.22307463 1.0738823 15260896
-0.50532079 0.22304083 1.075 15260897
-0.4949657 0.22293791 1.0738 15194591
-0.46500349 0.22669859 1.0746667 15524071
-0.60590863 0.20733657 1.0842001 14999008
-0.59458357 0.20782942 1.083889 15328224
-0.58483809 0.20779587 1.0860002 14800858
-0.57596165 0.20855351 1.0871429 15129564
-0.56566983 0.20867656 1.0865 15129566
-0.55674744 0.2087806 1.0874001 15195099
-0.60535997 0.2100229 1.081 14997983
-0.59437847 0.21036607 1.081 15129053
-0.58453548 0.21098931 1.082 14537689
-0.5747031 0.21115735 1.0826 14996696
-0.56366861 0.21098931 1.0819999 15063774
-0.55448502 0.21289486 1.0831875 15128282
-0.54548287 0.2136476 1.08375 15260894
-0.5352065 0.2142504 1.0834117 15326946
-0.52442288 0.2151823 1.0846317 15129565
-0.51431227 0.21496266 1.0841904 15326947
-0.50514936 0.21494882 1.0839444 15261667
-0.49497017 0.21541323 1.0844761 15458276
-0.48564681 0.21673794 1.086421 15260899
-0.64119148 0.19736859 1.0965 14473176
-0.62220001 0.19868571 1.098 15262681
-0.61540288 0.19868571 1.098 14867166
-0.60755998 0.19868571 1.098 14933467
-0.58560002 0.19868571 1.098 14801370
-0.57723427 0.19868571 1.098 14734550
-0.56050289 0.19868571 1.098 15063001
-0.55527425 0.19868571 1.098 15064287
-0.58505815 0.20302354 1.0935999 15063516
-0.57564884 0.20351337 1.0939997 14932445
-0.56532007 0.2041989 1.0939562 15261152
-0.55433643 0.20463564 1.0943791 15062747
-0.54519576 0.20730989 1.0935788 15129309
-0.53541934 0.20698692 1.0954667 15326176
-0.52514511 0.2070622 1.0948235 15195361
-0.51527011 0.20783636 1.0949997 15260897
-0.50518882 0.20754692 1.0951248 15392995
-0.49638489 0.20818968 1.09575 15392483
-0.4869543 0.20844574 1.098 15129567
-0.50493807 0.2117476 1.0916667 15458020
-0.49294451 0.21121792 1.0932858 15391457
-0.62510967 0.19478847 1.1049998 15326946
-0.6148392 0.19464275 1.1049997 15129823
-0.60482985 0.19575636 1.1056664 14865880
-0.59593207 0.1955971 1.1059046 14997980
-0.5851199 0.19594002 1.1052858 14931934
-0.57499528 0.19707115 1.1055292 14867934
-0.5654006 0.19771905 1.1043001 14866137
-0.55518818 0.19719565 1.1055715 15064543
-0.54499435 0.1985638 1.109 15128540
-0.53466302 0.19844791 1.1074617 15194848
-0.52552342 0.19814713 1.1076666 15260383
-0.51964581 0.1964514 1.109 15063779
-0.52491069 0.20242824 1.1041667 15128027
-0.61427194 0.18764429 1.1152501 14866906
-0.60468644 0.18740357 1.1148751 14800344
-0.5959022 0.18825398 1.1146667 14998751
-0.58457148 0.1891886 1.1160001 15130334
-0.57713145 0.1891886 1.1160001 14866148
-0.60526001 0.1908 1.113 14867415
-0.565952 0.19339086 1.1145 15063005
-0.53621972 0.19485904 1.1146667 14931936
-0.62146008 0.1781733 1.127 14865884
-0.61572766 0.17806666 1.1263334 14800090
-0.59570003 0.1781733 1.127 14931931
-0.61451799 0.18338791 1.1232857 14800602
-0.60559928 0.18303064 1.1234666 14800862
-0.59479845 0.18390746 1.1227274 14866650
-0.58483297 0.18492258 1.1227371 14866395
-0.57482487 0.18622409 1.1224997 14866138
-0.56472176 0.18596046 1.1240475 14866138
-0.55453944 0.18623097 1.1238421 14931419
-0.54550695 0.18738338 1.1243335 14997471
-0.5352124 0.18769923 1.1262 15194592
-0.52546388 0.18766573 1.126 14997982
-0.51739591 0.18843716 1.1263334 14733270
-0.63402855 0.1690743 1.138 14669273
-0.62319052 0.1690743 1.138 14864858
-0.63525712 0.1750145 1.1343914 14800601
-0.62594831 0.1746465 1.1336471 14669016
-0.61578757 0.17435069 1.1355655 14537944
-0.60502768 0.17656758 1.1351112 14866906
-0.59442872 0.17675792 1.1351666 14998236
-0.58514386 0.17786761 1.1353333 14867164
-0.5737012 0.1769916 1.1348236 14734553
-0.56527001 0.17859238 1.1365 14668761
-0.55462283 0.17753525 1.1366668 15128541
-0.54656899 0.17894241 1.137 14864857
-0.53865337 0.1799124 1.138 15194593
-0.57492501 0.18176787 1.131 14603736
-0.56563711 0.18147905 1.132 14603739
-0.55418128 0.18184981 1.1327143 14866654
-0.54442686 0.1830242 1.1335385 14866401
-0.52476293 0.18389487 1.1340667 14735066
-0.6344794 0.16798092 1.1453333 14669272
-0.62513262 0.16680115 1.1441538 14602455
-0.61753994 0.16734856 1.1439999 14471637
-0.60469139 0.17173775 1.1435385 14800345
-0.5545463 0.17438327 1.1443999 14865370
-0.63453877 0.15902588 1.155 14470614
-0.62808567 0.1586743 1.1569999 14536147
-0.64507234 0.1637319 1.1509373 14603733
-0.6355145 0.16329512 1.1507498 14669017
-0.62500829 0.16155046 1.1513333 14603225
-0.6151585 0.16426504 1.1526817 14799831
-0.60459679 0.1656725 1.1524736 14800089
-0.59512115 0.16521572 1.1526998 14800086
-0.58530021 0.16596964 1.1532776 14406613
-0.57473433 0.16692804 1.1531333 14800088
-0.56525666 0.16765194 1.1543332 14865628
-0.5538938 0.16765194 1.1543332 14669534
-0.54611075 0.16754596 1.1554999 14799835
-0.66443735 0.14874136 1.169 14604252
-0.65464008 0.1491867 1.169 14405330
-0.64462 0.1491867 1.169 14341335
-0.63905329 0.1491867 1.169 14077394
-0.61678672 0.14696001 1.169 14209236
-0.64468533 0.1548866 1.1652105 14339795
-0.63419884 0.15444 1.1650002 14272720
-0.62490386 0.15598467 1.1659524 14536661
-0.61451435 0.15591863 1.1673336 14602964
-0.60669261 0.15682557 1.1667144 14668760
-0.58431047 0.15758198 1.1677692 14668504
-0.57571936 0.15800524 1.1669999 14406612
-0.56524312 0.15876454 1.1674 14470866
-0.55919999 0.1597714 1.165 14602963
-0.66470617 0.14591001 1.1739999 14472408
-0.65464097 0.14659333 1.1750001 14471635
-0.64438611 0.14655082 1.1746668 14274004
-0.63570106 0.14807561 1.175154 14076624
-0.62459707 0.14831567 1.1747142 14208466
-0.61778009 0.1496972 1.173 14274263
-0.58719385 0.15343127 1.1747142 14799579
-0.68505877 0.1378381 1.1863332 14734809
-0.67583185 0.13840367 1.1863333 14538458
-0.6681143 0.1399429 1.1849999 14275032
-0.64503998 0.13886747 1.1874001 14340307
-0.6373474 0.13841602 1.1874 14338767
-0.61271816 0.1390467 1.187 13683666
-0.60749686 0.1384145 1.1874001 14142421
-0.67523211 0.14246984 1.1809999 14537691
-0.64457101 0.14198327 1.1832222 14339539
-0.63522786 0.14280462 1.1847142 14274259
-0.60431445 0.14523046 1.1846361 14471381
-0.69084001 0.12996 1.197 14212825
-0.68742001 0.12996 1.197 14343902
-0.62510097 0.13672851 1.1963845 14078164
-0.61456758 0.13694888 1.1950001 14011346
-0.60534 0.13794 1.197 14208471
-0.59377712 0.13810286 1.1969999 14536915
-0.58652997 0.13851 1.197 14272722
-0.66541904 0.12742032 1.2053332 14274521
-0.65778285 0.12849776 1.2046666 14471637
-0.6424343 0.12710859 1.206 14207958
-0.63604289 0.12772524 1.2055 14077911
-0.6282686 0.12864 1.206 14405336
-0.63534284 0.1316476 1.202 14077651
-0.68468094 0.11720762 1.2184999 13946583
-0.67434746 0.11709035 1.219 14076885
-0.66522574 0.1184172 1.219 14076373
-0.65090734 0.1176432 1.219 14077399
-0.64502519 0.1179528 1.219 14274521
-0.635041 0.1184172 1.219 14208986
-0.62923622 0.1184172 1.219 14144217
-0.64539516 0.12395947 1.2132142 14142679
-0.63483286 0.12317853 1.2148234 14143192
-0.71282864 0.10906667 1.227 14143957
-0.70582962 0.10966665 1.225 13880533
-0.6953001 0.1098457 1.227 14274263
-0.68945718 0.1098457 1.227 14405853
-0.67777151 0.1098457 1.227 14077915
-0.66725433 0.1098457 1.227 13880024
-0.69497466 0.11414667 1.223 14208979
-0.68446565 0.11326748 1.2239999 14208984
-0.67344618 0.11375092 1.2243333 13946073
-0.66511351 0.11517601 1.2240666 14143190
-0.65738058 0.11608296 1.2243333 14143448
-0.64411336 0.1164762 1.223 14143445
-0.63487095 0.1167048 1.2254001 14338775
-0.62538004 0.11854572 1.2243334 13945556
-0.69578671 0.1079467 1.232 14208981
-0.68522674 0.10794671 1.232 14077146
-0.6746667 0.1079467 1.232 13945304
-0.66689718 0.10820951 1.235 14077399
-0.65684575 0.1082971 1.2359999 13945558
-0.64742857 0.1082971 1.2359999 14075859
-0.62506294 0.1082971 1.2359999 14077138
