# .PCD v0.7 - Point Cloud Data file format
VERSION 0.7
FIELDS x y z rgba
SIZE 4 4 4 4
TYPE F F F U
COUNT 1 1 1 1
WIDTH 245
HEIGHT 1
VIEWPOINT 0 0 0 1 0 0 0
POINTS 245
DATA ascii
-0.094904996 -0.59398067 1.539 1772295
-0.087942861 -0.5921486 1.539 2230535
-0.064125001 -0.59471357 1.539 2166283
-0.056115918 -0.59424251 1.5390002 2625545
-0.11370814 -0.58382869 1.535111 1639172
-0.10525253 -0.58618593 1.5349165 1311746
-0.094538569 -0.58738506 1.539 1639427
-0.086410485 -0.5848642 1.5378333 1901826
-0.057162855 -0.58921719 1.539 2951682
-0.083925717 -0.5933696 1.546 2099459
-0.076563813 -0.5933696 1.546 2033669
-0.063312389 -0.59189719 1.546 2623492
-0.11288256 -0.58109975 1.546 1573633
-0.10502985 -0.58257216 1.546 1770753
-0.09465307 -0.58390427 1.5460001 2229250
-0.084556736 -0.58264226 1.5460001 2360833
-0.076236635 -0.58568054 1.546 2361092
-0.1207353 -0.57422858 1.546 1905157
-0.1148457 -0.57717341 1.546 1115905
-0.1089562 -0.57717341 1.546 2230273
-0.094232388 -0.57422858 1.546 2951176
-0.086239457 -0.57464927 1.5460001 3016713
-0.093741596 -0.56637591 1.546 2099461
-0.088342868 -0.56539428 1.546 2034441
-0.073360756 -0.59516889 1.553 2361095
-0.065817617 -0.59235859 1.553 2754053
-0.1212819 -0.58274478 1.553 2101507
-0.1183238 -0.58422387 1.553 1770753
-0.10254727 -0.58373082 1.553 2098689
-0.096138105 -0.58422387 1.553 2556931
-0.074445404 -0.58471686 1.553 3081990
-0.065078095 -0.58792144 1.553 3147014
-0.1212819 -0.57978672 1.553 2035972
-0.1153657 -0.57494617 1.5529999 1640194
-0.10471654 -0.57505381 1.5529997 2623236
-0.083566189 -0.57313097 1.553 2886150
-0.077896506 -0.57584256 1.553 3279623
-0.1153657 -0.56721479 1.553 1377796
-0.10471654 -0.565292 1.5529999 1509641
-0.095152073 -0.5640102 1.553 1313541
-0.084939599 -0.56457365 1.5530001 1248518
-0.079868577 -0.56499618 1.553 1707015
-0.11536571 -0.55908012 1.553 723460
-0.10501236 -0.556122 1.5529999 1117193
-0.095081642 -0.55696714 1.5530001 1379334
-0.087263815 -0.55908012 1.553 1379843
-0.05074095 -0.6029219 1.567 3476744
-0.054987881 -0.59354311 1.5644547 3410436
-0.07131429 -0.58240002 1.5599999 3804175
-0.065371431 -0.58499998 1.5599999 3344647
-0.05552147 -0.58506739 1.5659231 3411212
-0.047756191 -0.58501339 1.567 3738898
-0.080228567 -0.57051432 1.5599999 2231559
-0.073295251 -0.57447618 1.5599999 2886667
-0.065282039 -0.57500732 1.5629998 2362377
-0.05602169 -0.57537019 1.567 2100747
-0.047756191 -0.57904381 1.567 3019284
-0.1158857 -0.56576002 1.5599999 788996
-0.1069714 -0.56605715 1.5599999 1313295
-0.081219047 -0.56259042 1.5599999 1249027
-0.074617527 -0.56422782 1.5606998 1445130
-0.065562539 -0.5642705 1.5646667 1051660
-0.05969524 -0.56710482 1.567 854795
-0.1223752 -0.55218101 1.567 1773061
-0.11628952 -0.55555749 1.5613998 985090
-0.10548572 -0.55268568 1.5599999 1116931
-0.094491422 -0.55387425 1.5599999 1313284
-0.08487238 -0.55540973 1.5634999 1576710
-0.074553713 -0.55615681 1.5656002 1772555
-0.068342857 -0.55862862 1.5599999 1314061
-0.1223752 -0.54919618 1.567 1642756
-0.11514338 -0.54528552 1.5660666 1181699
-0.10522381 -0.54548007 1.5634998 1182214
-0.095369287 -0.54539108 1.5646665 1510153
-0.085961148 -0.5485993 1.567 1837832
-0.12356912 -0.53367537 1.567 1838088
-0.11450633 -0.53454375 1.5670002 1050119
-0.10566056 -0.53546625 1.567 1509895
-0.098497137 -0.53725708 1.567 1380100
-0.050967619 -0.6026172 1.574 3673351
-0.047969531 -0.6026172 1.574 3804425
-0.050967619 -0.59961909 1.574 3869190
-0.045346193 -0.59437239 1.5740001 4000006
-0.043472379 -0.58462858 1.574 3412749
-0.051966984 -0.57363558 1.574 1445128
-0.044971433 -0.57713336 1.574 1969929
-0.065958098 -0.56064391 1.574 1379849
-0.056963813 -0.56626523 1.5740001 1051914
-0.074202865 -0.5523991 1.574 1707019
-0.065958098 -0.55764568 1.574 1379592
-0.12412114 -0.54505372 1.574 2036230
-0.1199238 -0.54265523 1.574 1574666
-0.085445717 -0.54790193 1.574 1511174
-0.12492063 -0.53366101 1.574 1839112
-0.11632608 -0.53126252 1.574 919559
-0.1040767 -0.53323275 1.5740001 1510151
-0.098187625 -0.53516006 1.574 1314308
-0.12442095 -0.52766478 1.574 1641992
-0.11542665 -0.52766478 1.574 526598
-0.1079314 -0.52766478 1.574 1444104
-0.043886669 -0.62046671 1.589 2495238
-0.05239886 -0.61493379 1.581 2496009
-0.045318734 -0.61438614 1.5863333 3149833
-0.03439394 -0.61413819 1.5889999 3739915
-0.027240001 -0.61290002 1.589 4920848
-0.044569142 -0.60469484 1.581 4001034
-0.034375932 -0.60533136 1.5882726 4591631
-0.026029333 -0.60593867 1.589 5248017
-0.042160001 -0.59927428 1.581 4262407
-0.035002347 -0.59417772 1.5822307 4263695
-0.024213335 -0.59473997 1.5889999 4199187
-0.01816 -0.59020001 1.589 3348238
-0.034319125 -0.58443254 1.5828463 2626059
-0.02623111 -0.58313775 1.5890001 1970188
-0.01816 -0.58112001 1.589 1970442
-0.045171428 -0.57367718 1.581 1575944
-0.035455402 -0.57538414 1.5843334 1183751
-0.024213333 -0.57733667 1.589 1250059
-0.014528001 -0.57688266 1.589 1906437
-0.063240007 -0.56012571 1.581 1182728
-0.053659808 -0.56460744 1.5826001 1051909
-0.04519048 -0.56487906 1.5816666 1511429
-0.035715673 -0.56630605 1.586818 1445891
-0.075476192 -0.5509724 1.585 1511691
-0.064846665 -0.55346483 1.5834998 1575942
-0.054458421 -0.55515969 1.5883332 1575945
-0.046610672 -0.55811739 1.589 2165765
-0.091324285 -0.54342479 1.585 1313796
-0.084826492 -0.54546815 1.5853635 1510662
-0.075666666 -0.54706991 1.589 1118222
-0.068100005 -0.54782659 1.589 1772553
-0.1038943 -0.53001148 1.581 1772549
-0.094301425 -0.53489703 1.5843333 1051908
-0.087773338 -0.53723341 1.589 1707526
-0.12388509 -0.52575117 1.5863332 1314053
-0.11453696 -0.52523464 1.5865998 1116678
-0.10611013 -0.52505451 1.5875454 1510407
-0.096853331 -0.52664 1.5889999 1379845
-0.077180006 -0.50848007 1.589 1639700
-0.11501333 -0.49183336 1.5889999 6966332
-0.034742858 -0.62363434 1.5959998 2233094
-0.024319999 -0.62320006 1.5959998 3412741
-0.018239999 -0.62015998 1.596 5775374
-0.022496 -0.61468804 1.596 5511952
-0.018239999 -0.61408007 1.5960001 5971474
-0.022293335 -0.6059733 1.5960001 5379600
-0.018239999 -0.60496002 1.5960001 5445652
-0.01596 -0.59508002 1.596 3807759
-0.023306666 -0.58722669 1.5959998 2298379
-0.01596 -0.58595997 1.596 2102792
-0.0091200015 -0.58216 1.596 1513740
-0.030400001 -0.57608008 1.596 1051915
-0.024320001 -0.57418001 1.5959998 1708298
-0.018239999 -0.57608008 1.596 1578252
-0.034960002 -0.56392002 1.596 1248771
-0.02736 -0.56544 1.596 1511174
-0.062320001 -0.55023998 1.596 1706245
-0.054719999 -0.55023998 1.5960001 1641988
-0.04408 -0.55936003 1.596 2755081
-0.036479998 -0.55783999 1.5959998 1641990
-0.083093338 -0.54213333 1.5960001 2035207
-0.076000005 -0.54378003 1.5959998 1379851
-0.065968007 -0.54476804 1.5959998 1707016
-0.055226665 -0.54517335 1.5959998 1707781
-0.091200002 -0.53200001 1.596 1314565
-0.084740005 -0.53465998 1.5959998 1576966
-0.078026682 -0.53706664 1.5960001 1576968
-0.12464 -0.52288002 1.5960001 1182983
-0.11704 -0.52288002 1.596 1248265
-0.10184 -0.52288002 1.596 2427657
-0.093024001 -0.52470404 1.596 1445125
-0.08512 -0.52592003 1.5959998 1511179
-0.079040013 -0.5244 1.596 1839364
-0.12396444 -0.51409781 1.5959998 1247749
-0.11551999 -0.51528007 1.5959998 1313288
-0.10487999 -0.51528001 1.5960001 1706247
-0.09424001 -0.51528001 1.5959998 1052166
-0.08512 -0.51528001 1.5959998 1838600
-0.076506674 -0.51730663 1.5959998 2427404
-0.064346671 -0.51578665 1.5959998 6047278
-0.12464002 -0.50463998 1.5959998 1771013
-0.11612801 -0.50463998 1.596 1836293
-0.10437334 -0.50463998 1.5959998 2426117
-0.094240002 -0.50463992 1.5959998 1902597
-0.085120007 -0.50463998 1.5959998 1968393
-0.077824011 -0.50524795 1.596 5119778
-0.12388 -0.49779999 1.596 3090961
-0.11552 -0.49856001 1.596 3156251
-0.10639999 -0.49602666 1.5959998 6373688
-0.094999999 -0.49779999 1.596 6897445
-0.08512 -0.49856004 1.5960001 7491112
-0.016030001 -0.62516999 1.603 4922638
-0.0061066668 -0.62593335 1.6029999 7353378
-0.013739999 -0.61066669 1.603 5840408
-0.013739999 -0.60456002 1.603 5183766
-0.013739999 -0.59539998 1.603 3349773
-0.013739999 -0.5892933 1.603 2169094
-0.0071244449 -0.58827549 1.603 1839632
-0.031551111 -0.56384891 1.603 1380101
-0.027480001 -0.56334001 1.603 1707528
-0.071753331 -0.54044002 1.603 1641225
-0.06350933 -0.54166138 1.603 1707780
-0.054451112 -0.54247558 1.603 1577221
-0.045460746 -0.54620743 1.6029999 1707780
-0.039693329 -0.54044002 1.603 1774085
-0.0743903 -0.53405577 1.6029999 1576712
-0.06615556 -0.5333156 1.603 1116425
-0.055723332 -0.53509665 1.603 1379335
-0.042746671 -0.53433329 1.603 3083020
-0.073279999 -0.52555496 1.6029999 2231819
-0.064501666 -0.52517331 1.6029999 3478809
-0.055723332 -0.52669996 1.603 4659989
-0.072669335 -0.51479203 1.603 4595499
-0.067173339 -0.51448667 1.603 6770735
-0.058013331 -0.51906669 1.603 6838074
-0.11541603 -0.50563198 1.603 2231049
-0.10572167 -0.50532669 1.6029999 2428684
-0.10076 -0.4976933 1.603 7032125
-0.013808575 -0.63212568 1.6109999 3084558
-0.013808575 -0.6259886 1.6109999 5644821
-0.0061371424 -0.62291998 1.6109999 7220522
-0.013808575 -0.61831707 1.6109999 6299928
-0.0061404761 -0.61569524 1.6121665 6627883
-0.0071837031 -0.60449409 1.6164445 4398620
-0.0061415876 -0.596165 1.6133333 2364183
-0.044494286 -0.56154859 1.6109999 2232589
-0.030685719 -0.56154859 1.6109999 1641482
-0.02761714 -0.56154859 1.6109999 1707016
-0.046028573 -0.5569458 1.6109999 1707782
-0.035288576 -0.55541146 1.6109999 1576454
-0.02761714 -0.55541152 1.6109999 1053448
-0.062905714 -0.54006863 1.6109999 1380613
-0.052165721 -0.54006863 1.6109999 658441
-0.046539996 -0.54211432 1.6109999 1903878
-0.035009269 -0.5452475 1.6124001 1969930
-0.02769714 -0.54778349 1.6156667 1119508
-0.063672855 -0.53623289 1.6109999 1183241
-0.055234291 -0.53546572 1.6109999 1575690
-0.044618726 -0.53393501 1.6156667 4730143
-0.034260221 -0.53328049 1.6126155 5189154
-0.061371431 -0.5277943 1.6109999 4666142
-0.054620575 -0.52656686 1.6109998 6573105
-0.048005719 -0.53270859 1.626 7230002
-0.049554288 -0.52961153 1.626 7099210
-0.045129523 -0.53221709 1.6339999 7164221
