# .PCD v0.7 - Point Cloud Data file format
VERSION 0.7
FIELDS x y z rgba
SIZE 4 4 4 4
TYPE F F F U
COUNT 1 1 1 1
WIDTH 1198
HEIGHT 1
VIEWPOINT 0 0 0 1 0 0 0
POINTS 1198
DATA ascii
0.20691746 -0.11556793 1.1556665 15724482
0.21486351 -0.11495572 1.1521903 12566659
0.22534342 -0.11431696 1.1541998 9808492
0.23466833 -0.11472342 1.1559471 8692071
0.24109671 -0.11724267 1.1569999 10267509
0.20643453 -0.1055519 1.1544999 12635027
0.21510495 -0.10535628 1.1523477 11189886
0.225384 -0.10440045 1.1560585 10663283
0.23250189 -0.1057829 1.1569999 9020257
0.1983429 -0.09696763 1.1569999 10208896
0.20467883 -0.09641666 1.1569998 10140022
0.21539895 -0.098153867 1.1565555 9088875
0.22537301 -0.096744753 1.1543332 9679728
0.1384505 -0.21044761 1.163 14474897
0.14374287 -0.21229713 1.161 16315327
0.13710858 -0.2052943 1.1610001 15661238
0.1437429 -0.2078743 1.161 16638911
0.1536943 -0.2067686 1.161 9135972
0.12470815 -0.19322748 1.1645555 9934969
0.13268571 -0.1990286 1.161 14483132
0.15406287 -0.19386856 1.1610001 10594437
0.11669657 -0.18316266 1.1670001 10658675
0.1240508 -0.18497556 1.163 10991512
0.15200855 -0.18084855 1.165 7571807
0.2052581 -0.18196189 1.165 11776387
0.21253841 -0.18449654 1.1623334 13221261
0.2255657 -0.18576001 1.161 13087098
0.1091067 -0.17479335 1.169 12563590
0.11594985 -0.17535672 1.1674763 10660983
0.12494547 -0.17485906 1.1634761 9935211
0.13434429 -0.17193858 1.1610001 7436625
0.14519295 -0.1740967 1.1621764 6189135
0.15355983 -0.17375512 1.1668181 8295521
0.16533001 -0.1731233 1.1689999 10068852
0.17479332 -0.17323466 1.1689999 12169610
0.18488497 -0.17324716 1.1683846 13021327
0.19345236 -0.175064 1.1634001 12036487
0.2023457 -0.17802 1.161 10327418
0.1091067 -0.16551556 1.169 10662783
0.11515143 -0.16479601 1.1677274 11122043
0.12501982 -0.16548347 1.1647646 15001262
0.13377763 -0.16534214 1.1615334 14341275
0.14584853 -0.16526975 1.1628463 9806178
0.15463823 -0.1647709 1.1681111 9347434
0.16506377 -0.16457969 1.1690003 11055223
0.17479332 -0.16477334 1.1690001 13286544
0.18435638 -0.16540681 1.1674763 13482647
0.19091998 -0.16733146 1.161 12366469
0.10799335 -0.15475333 1.169 11453057
0.11583333 -0.1549214 1.1664548 13686949
0.12528856 -0.15522592 1.1642001 16447189
0.13519154 -0.15513891 1.1635604 15789253
0.14507449 -0.1550381 1.1628001 9479014
0.15437357 -0.15489253 1.1675882 9874288
0.16474512 -0.15472665 1.1688001 13159069
0.17508446 -0.15452637 1.1687648 16513757
0.18456294 -0.15533303 1.1650001 14667679
0.19405283 -0.15203567 1.161 10726525
0.20124 -0.15037709 1.161 8759918
0.10799335 -0.14473334 1.1689999 10860929
0.11508727 -0.14492163 1.1680909 15001780
0.12459294 -0.14469248 1.1660001 16513765
0.13536192 -0.14534763 1.1650002 15131330
0.14519334 -0.14519382 1.1637499 8823395
0.15443498 -0.14527082 1.1680588 7970921
0.16551556 -0.14597039 1.1690001 12503969
0.17561825 -0.14483573 1.1683334 15724241
0.18493001 -0.14506574 1.16275 12238218
0.19271016 -0.14469063 1.1610001 9677933
0.20124 -0.14595431 1.161 11517566
0.23650821 -0.14261109 1.1625999 10135664
0.105544 -0.13389687 1.169 11453067
0.11467332 -0.13471334 1.169 15528142
0.12458651 -0.13511646 1.1662176 16645884
0.13532354 -0.13532382 1.1646804 14671291
0.14537543 -0.13538097 1.1652002 9019744
0.15152542 -0.13596158 1.1670001 8693094
0.16922671 -0.13694 1.169 10863242
0.17592873 -0.13561232 1.1682941 11320202
0.18498531 -0.13520376 1.166273 9939831
0.19018281 -0.13489714 1.161 10204795
0.23676001 -0.13460855 1.1616668 9676912
0.10547368 -0.1253965 1.1690001 12308115
0.11467332 -0.12469335 1.1690001 14608315
0.12402812 -0.12509172 1.1648096 15988436
0.13513334 -0.12515903 1.1629999 11056776
0.14564934 -0.12451962 1.1674001 9022575
0.15178442 -0.12543558 1.169 9152877
0.1773911 -0.12840445 1.169 9809271
0.18470429 -0.12468114 1.1671667 11056767
0.19494589 -0.12418021 1.1610001 13685146
0.20308287 -0.12310287 1.1610001 16446433
0.24606405 -0.12538022 1.1625 10593637
0.25215015 -0.12218476 1.1663333 9148774
0.09240666 -0.11356001 1.169 11782030
0.10198134 -0.11311464 1.169 13035937
0.11544409 -0.11493023 1.1689999 11587209
0.12462715 -0.1153662 1.1666669 12045708
0.13467076 -0.11572989 1.1663333 9940850
0.14384267 -0.11548977 1.169 9218925
0.15141331 -0.11578667 1.169 9021799
0.18525867 -0.11534132 1.169 11977358
0.19492386 -0.11518203 1.1629199 14213301
0.20241503 -0.11503313 1.1614001 16448230
0.2322 -0.1105714 1.161 9610850
0.24583952 -0.11420014 1.16275 10003311
0.2518619 -0.11502063 1.165 9474919
0.10409667 -0.10688002 1.169 12178843
0.11619151 -0.10364123 1.1689999 10798720
0.12459652 -0.10494377 1.1690003 10272115
0.13515864 -0.10688001 1.1689999 9220207
0.14027999 -0.10799335 1.169 9087850
0.19629574 -0.10535999 1.1645 11649926
0.20218775 -0.10488488 1.1610001 12505243
0.23614204 -0.10492993 1.1632856 8756833
0.24538822 -0.1042825 1.1682729 9281898
0.25250396 -0.10732534 1.169 10391920
0.11652889 -0.096488893 1.169 10206844
0.12441499 -0.096025005 1.169 9615727
0.1892667 -0.091293328 1.169 10600575
0.19509529 -0.095041484 1.1639565 10469242
0.20430541 -0.091826342 1.1616668 9681003
0.21470867 -0.092964306 1.1620667 9287017
0.2211429 -0.095091425 1.161 9089650
0.23564452 -0.096110821 1.1660908 8691807
0.24048001 -0.096860006 1.169 8560480
0.1892667 -0.084613338 1.169 10930304
0.19500451 -0.084666498 1.1670002 10404473
0.2043142 -0.084492244 1.1659522 9615467
0.21216156 -0.086636819 1.1663333 9549668
0.18882136 -0.073925331 1.169 11063167
0.1941653 -0.07748799 1.169 10602612
0.20207 -0.077376664 1.169 9748585
0.18815336 -0.067913339 1.169 12246653
0.1914933 -0.067913339 1.169 12180614
0.049321901 -0.20177139 1.177 7245166
0.054864448 -0.20378476 1.1756668 9086849
0.064481474 -0.20361567 1.1766924 6913887
0.071740963 -0.2040133 1.177 8428147
0.044726007 -0.195382 1.177 8030061
0.054889333 -0.19491011 1.1762002 8162912
0.065386251 -0.19527951 1.1766522 5796686
0.075103812 -0.19392475 1.177 10070893
0.1177 -0.19056191 1.177 10853758
0.1210629 -0.19056191 1.177 9607796
0.1681429 -0.19056191 1.177 12235402
0.17150575 -0.19056191 1.177 12628111
0.058289517 -0.18607812 1.177 9540929
0.066616602 -0.1860781 1.177 9347684
0.075339571 -0.18651429 1.1759092 11187576
0.082502089 -0.18338783 1.177 11055994
0.10873235 -0.18271525 1.177 12497033
0.11368141 -0.18536142 1.176 11774594
0.15703836 -0.18321142 1.173 8822126
0.16549335 -0.18413311 1.1741111 10331003
0.17527306 -0.18475115 1.1744119 12364686
0.18465498 -0.18391176 1.1746001 12954766
0.19479716 -0.18276408 1.1755 12823946
0.20406477 -0.18395616 1.173 12762510
0.2100229 -0.1854457 1.173 12960151
0.078466669 -0.17598954 1.177 15256471
0.081829526 -0.17598954 1.177 15319441
0.10791199 -0.17463392 1.1754 12694922
0.1117143 -0.1787429 1.173 12299657
0.1564 -0.17762576 1.173 8821346
0.16449931 -0.17790505 1.173 10003059
0.17539144 -0.17799814 1.173 12235148
0.18512654 -0.17810453 1.173 12823180
0.1921486 -0.1787429 1.173 12298893
0.049321901 -0.1614171 1.177 16711408
0.078466669 -0.1681429 1.177 16711408
0.10661966 -0.16459289 1.1743335 11910022
0.15863431 -0.1675714 1.173 10002287
0.16198575 -0.1675714 1.173 10264180
0.047976762 -0.1524495 1.177 16382972
0.052012194 -0.15424302 1.177 15392425
0.097803101 -0.15385069 1.177 13684888
0.10298537 -0.15447858 1.1754 11912069
0.049321901 -0.1479657 1.177 14016700
0.051563811 -0.14684474 1.177 10787452
0.09864381 -0.14460286 1.177 10994310
0.10309774 -0.14456157 1.1766667 10861183
0.15863431 -0.14187714 1.173 8694381
0.16342206 -0.14203675 1.173 9417338
0.096215092 -0.13526161 1.177 10137728
0.10246895 -0.13781789 1.1745999 11319425
0.15660311 -0.13486961 1.1730001 8628073
0.16484064 -0.13492602 1.1730001 8957555
0.17315716 -0.1318229 1.173 10202739
0.089676186 -0.12218384 1.177 9219952
0.094907314 -0.1257958 1.177 10402171
0.10350712 -0.12365952 1.175 12701584
0.1565596 -0.12480082 1.1730001 8889959
0.16515096 -0.1253062 1.1730002 8628587
0.17467885 -0.12427396 1.1732223 9349484
0.1809772 -0.1206514 1.173 11909247
0.089473031 -0.1163175 1.1743333 9678445
0.092722863 -0.1184172 1.173 10335867
0.1067301 -0.11532356 1.1730001 13298587
0.1117143 -0.11394861 1.173 11915908
0.14790976 -0.11260802 1.173 9087847
0.15617934 -0.11489584 1.1739233 8693351
0.16468036 -0.11508968 1.1739414 8168545
0.17463179 -0.11520676 1.1738423 9348973
0.18410516 -0.11305489 1.173 12437395
0.10589935 -0.10478306 1.1732223 11455881
0.11320383 -0.10625269 1.173 11193990
0.12623715 -0.10166 1.173 9287534
0.13472742 -0.10277715 1.1730001 9153898
0.14465016 -0.10475671 1.1743333 8890472
0.15281889 -0.10657222 1.1761429 8430178
0.16552733 -0.109106 1.177 8168027
0.1748686 -0.10873236 1.177 10007410
0.18498117 -0.10815217 1.1747779 12833434
0.19144338 -0.10566877 1.1747777 13161373
0.10711458 -0.097784758 1.1756667 11390087
0.11368383 -0.094843268 1.1735715 10601597
0.12512 -0.096074291 1.173 9746029
0.13517427 -0.094957158 1.1730001 9087847
0.1442043 -0.095015727 1.1737502 8692579
0.15110436 -0.096850291 1.177 8298079
0.1899143 -0.094957143 1.173 11060866
0.19056191 -0.09864381 1.177 13029787
0.24493231 -0.095408671 1.1748182 8953965
0.25066665 -0.097355247 1.175 10131062
0.13620089 -0.08660616 1.175154 9087333
0.14208071 -0.086033098 1.177 8430683
0.24526437 -0.086985901 1.177 9084263
0.087994754 -0.07342238 1.177 9946490
0.18768001 -0.075965717 1.173 11521419
0.19580473 -0.073528312 1.1730001 10996857
0.20332 -0.07373143 1.173 9879916
0.1966172 -0.068145715 1.173 11917694
0.20183046 -0.068518095 1.173 11586415
0.18521579 -0.045186806 1.1735716 10602106
0.19344436 -0.045158364 1.177 10994821
0.046865087 -0.21220513 1.1809999 9806718
0.055012986 -0.21429127 1.1853637 12300939
0.065292448 -0.21468537 1.1847332 12365701
0.075060673 -0.21450531 1.189 13548688
0.081531428 -0.2151524 1.189 13546886
0.038241912 -0.20133241 1.181 10587510
0.044878006 -0.20571895 1.1809999 8819569
0.055113338 -0.2092057 1.181 12103299
0.066266671 -0.20876546 1.1821429 9871746
0.075516507 -0.2048851 1.1834444 10267255
0.083015241 -0.20390031 1.1849999 10594421
0.04499048 -0.19289665 1.181 8556907
0.060737152 -0.19233429 1.181 5599808
0.07873334 -0.1979581 1.181 9873514
0.080982856 -0.19683334 1.181 10070124
0.099146672 -0.19490954 1.183 11905412
0.10473193 -0.19501969 1.1849998 12561035
0.11420429 -0.19436081 1.1853333 11705476
0.12099367 -0.19540067 1.1836667 10525306
0.16534005 -0.1912095 1.181 11776902
0.17654249 -0.19343221 1.1821998 13218449
0.18508573 -0.19411846 1.1849999 13610895
0.19428416 -0.19315176 1.1883334 13675918
0.20595162 -0.19237527 1.1882 14398607
0.21500459 -0.19282822 1.1882 14138510
0.2212 -0.1941143 1.1849999 12557161
0.038306668 -0.18532813 1.183 8623456
0.044845242 -0.18482687 1.1821665 11188339
0.054334655 -0.18532617 1.1809999 12699251
0.064370997 -0.18498006 1.1809999 9479249
0.074234299 -0.1833362 1.1809999 10924407
0.080982856 -0.1822114 1.181 11121271
0.097442284 -0.18563943 1.1841999 11908740
0.10421986 -0.18608829 1.1821426 12628362
0.1129261 -0.18851011 1.181 11969668
0.1619657 -0.18896 1.181 10660477
0.18783525 -0.18896 1.181 14004616
0.19483238 -0.18807524 1.1824999 13875090
0.20451322 -0.18824466 1.1827776 14336658
0.21394606 -0.18917334 1.1823334 14532754
0.046901844 -0.17544979 1.1839333 13491631
0.055142671 -0.17555049 1.1815999 15132337
0.065316655 -0.17567377 1.1824397 11518593
0.074984141 -0.17533788 1.1809999 13619612
0.086124629 -0.17524862 1.1809999 14143637
0.095604777 -0.17546286 1.1809999 12370058
0.10394273 -0.17595847 1.1814998 13090702
0.033857141 -0.1602571 1.1849999 15001251
0.046147354 -0.16546139 1.181857 15000997
0.055414457 -0.16530365 1.1831175 13683855
0.065447696 -0.16474858 1.1848396 9351286
0.075134106 -0.16511507 1.1809999 15199181
0.085481912 -0.16534001 1.1809999 16645609
0.095604777 -0.16534002 1.1809999 14536857
0.10219266 -0.16582207 1.1809999 13159831
0.027107881 -0.15403949 1.1860909 13161625
0.03516794 -0.15495051 1.1827776 14475696
0.044203144 -0.15577953 1.1809999 16250577
0.055959191 -0.15516749 1.181857 11383664
0.065446861 -0.15458763 1.1847997 9021545
0.075459242 -0.15542403 1.1825998 12637103
0.085481912 -0.15521716 1.1809999 15725521
0.093917631 -0.15577954 1.1809999 14800546
0.024590751 -0.14522086 1.1842378 12702617
0.03492 -0.14530572 1.1827499 13819047
0.044768523 -0.14496723 1.1814209 14475696
0.055637829 -0.14487906 1.181857 9283943
0.06545715 -0.14558569 1.1849997 9219184
0.075531431 -0.14543189 1.1837497 10534018
0.085481912 -0.14509431 1.1809999 11255181
0.09448 -0.14509432 1.1809999 10795653
0.026135359 -0.13689725 1.1867499 14084779
0.034996383 -0.13547316 1.1853998 11584902
0.045110855 -0.13533472 1.1841997 10860671
0.05524515 -0.13528803 1.1837997 9152872
0.06545715 -0.13542855 1.1849996 8826219
0.075600944 -0.13540497 1.1847997 9743994
0.085559942 -0.13509728 1.1821197 9744761
0.094198823 -0.13384669 1.1809999 9546611
0.036060318 -0.12507948 1.1881999 10139509
0.045151241 -0.12529275 1.1851997 9745010
0.055556525 -0.12506185 1.1861763 9088105
0.064939223 -0.1245347 1.1868179 8694118
0.075040914 -0.12421723 1.1876085 8626030
0.08515387 -0.12535672 1.1834443 9021297
0.092230476 -0.1259733 1.181 9219185
0.037934758 -0.11493667 1.189 10074230
0.045060273 -0.11491438 1.1829197 9548142
0.054750029 -0.11520617 1.185941 9088876
0.063089795 -0.11582638 1.189 9087330
0.076246984 -0.11550286 1.189 7837277
0.085126407 -0.11476944 1.184636 8759403
0.045170285 -0.10841604 1.1858 9219178
0.0532219 -0.1087086 1.189 9416556
0.088325717 -0.1087086 1.189 12241025
0.1012286 -0.10235335 1.181 11521419
0.15734763 -0.10444647 1.1817999 7707740
0.16485055 -0.10404229 1.1823331 7905117
0.17443842 -0.10353715 1.1816665 9942648
0.18270071 -0.10419738 1.1859999 11584909
0.10478875 -0.094123475 1.1842726 11522445
0.11191382 -0.092792861 1.181 10930306
0.15592058 -0.09445215 1.1849999 7970397
0.16477141 -0.094800018 1.1849996 7904348
0.1739887 -0.095502742 1.1814998 9942653
0.2474477 -0.092230476 1.181 9150313
0.25167137 -0.093671434 1.1849999 9804148
0.098672383 -0.083984442 1.1863333 11853188
0.10524518 -0.08529608 1.1854442 12246667
0.11331967 -0.08531709 1.184294 11850375
0.13542132 -0.081882671 1.181 10926443
0.14678147 -0.084919535 1.1809999 8692825
0.15442699 -0.085297778 1.1854444 8168027
0.16485257 -0.084685154 1.1855997 8562275
0.1739188 -0.08542341 1.1847141 10072697
0.24913482 -0.088293821 1.181 9475950
0.25194669 -0.087731443 1.181 9930102
0.086747624 -0.076613337 1.183 10143095
0.095940448 -0.075218931 1.1823331 11064705
0.10485694 -0.077699266 1.1881112 13037457
0.11291455 -0.077648982 1.189 12974476
0.13722096 -0.077608585 1.1809999 12113254
0.14530253 -0.076591119 1.1826664 10799458
0.15431224 -0.076305553 1.1869999 10009953
0.1651426 -0.07479699 1.1869997 9680490
0.17305587 -0.075850576 1.1867778 10534007
0.096950479 -0.069892697 1.1836666 9750394
0.16572963 -0.065491095 1.1880586 9419882
0.17438668 -0.06386628 1.189 11260288
0.18457811 -0.061148569 1.189 12445320
0.16872475 -0.057751428 1.189 9615468
0.17574555 -0.055713143 1.1889999 10207102
0.18393612 -0.055141833 1.1863333 10800518
0.17755732 -0.04620114 1.189 10799994
0.18372229 -0.045366287 1.1850001 10800512
0.05680953 -0.220421 1.193 11111530
0.059280001 -0.21888 1.197 12627581
0.061354291 -0.2181486 1.193 12691322
0.0766498 -0.21630529 1.1935713 14139274
0.082512856 -0.21396379 1.1949999 13089414
0.10925715 -0.20372096 1.1949999 13282968
0.11504573 -0.20389046 1.1960001 13613981
0.12426001 -0.20405999 1.197 13548695
0.18696 -0.20063999 1.197 13872783
0.20976 -0.20063999 1.197 13675402
0.21432 -0.20063999 1.197 13479056
0.1090743 -0.1999695 1.193 13086356
0.11475524 -0.1999695 1.193 12496016
0.1227086 -0.19996949 1.193 11577735
0.1795181 -0.1999695 1.193 14530195
0.1829267 -0.1999695 1.193 14136722
0.19612162 -0.19710204 1.1952858 13414030
0.2054002 -0.19705544 1.1952223 13872271
0.21435645 -0.1971426 1.1935713 14004619
0.220421 -0.1954248 1.193 13084793
0.024996191 -0.17042859 1.193 8824425
0.038630482 -0.1783819 1.193 11846274
0.04090286 -0.1783819 1.193 12245666
0.017262856 -0.16481145 1.1969999 9349479
0.02329392 -0.16499898 1.1954616 9480808
0.018239999 -0.15276 1.197 9282918
0.022250159 -0.15677546 1.1947778 9677160
0.017069526 -0.1445381 1.1949999 9678451
0.017771808 -0.13625105 1.1962 10140034
0.023007857 -0.13321835 1.193 13298091
0.018239999 -0.12540001 1.197 11256473
0.025066841 -0.12565206 1.1964549 12834720
0.032267809 -0.12316306 1.193 10534020
0.02673818 -0.11586545 1.1970001 11716233
0.034339208 -0.11478937 1.1953334 10401657
0.059081908 -0.11361904 1.193 9285220
0.065899044 -0.11361906 1.193 8693346
0.072716191 -0.11305097 1.193 8165729
0.028500004 -0.10715999 1.197 11124604
0.035545088 -0.10524697 1.1954446 11059580
0.044399809 -0.10519351 1.1954 10335342
0.05543267 -0.10414922 1.1952002 9680741
0.064829148 -0.10463164 1.1942002 9021026
0.07482104 -0.1051046 1.1950872 8297823
0.083818704 -0.10595947 1.195182 9022064
0.036936 -0.094619997 1.1970001 12970379
0.057 -0.09747 1.197 12181118
0.06512063 -0.09472204 1.1954 11456109
0.075076103 -0.095352851 1.1962004 10796908
0.036480002 -0.086184002 1.1970001 11326857
0.04104 -0.087779999 1.197 11918221
0.067830004 -0.08721 1.197 10866543
0.073581822 -0.085810907 1.1970001 10076790
0.084424615 -0.073919125 1.1954615 8827250
0.10600884 -0.072531767 1.1933637 12248717
0.11172 -0.071819998 1.197 12315793
0.15810828 -0.072796188 1.1943332 9484387
0.088160001 -0.066879995 1.197 8961144
0.094128259 -0.067563809 1.1956667 9748604
0.10530792 -0.064929202 1.1961113 10340224
0.11172 -0.063839994 1.197 10402690
0.15884 -0.066879995 1.197 7837285
0.16317855 -0.06197381 1.194 7904869
0.1783819 -0.062490478 1.193 11590020
0.1817905 -0.062490478 1.193 12247940
0.1064992 -0.055241108 1.1960001 10998917
0.11172 -0.059280001 1.197 11128957
0.16574696 -0.054078978 1.1945384 7379554
0.17118607 -0.053022224 1.193 9943666
0.16644 -0.046169996 1.197 5932631
0.17331347 -0.044872385 1.1950001 8501105
0.17556 -0.03819 1.197 6789990
0.17328 -0.028500002 1.197 6856036
0.059626669 -0.22360191 1.204 9143400
0.062720008 -0.22410794 1.2046666 8029540
0.086775616 -0.21257524 1.2052 12562821
0.1079657 -0.21133719 1.206 13741712
0.11256 -0.21133719 1.206 13809561
0.187741 -0.2106362 1.202 13409663
0.19511829 -0.21165374 1.202 12357758
0.20329715 -0.21133719 1.206 13670275
0.089588583 -0.20904 1.206 11513208
0.10837077 -0.2075835 1.202 13415314
0.11562096 -0.20834669 1.202 13940891
0.12404573 -0.20904 1.206 14466714
0.1869486 -0.20573637 1.2028 14333576
0.19467582 -0.20498054 1.2023998 14004614
0.20491147 -0.20491301 1.2033331 13742478
0.21442477 -0.20353428 1.204 13479055
0.2205257 -0.19985139 1.206 12952451
0.014118731 -0.16102986 1.202 7699295
0.026711106 -0.16637202 1.202 9348199
0.0076571428 -0.15543999 1.206 10060638
0.014106377 -0.15500395 1.2035384 9874552
0.012751749 -0.14512298 1.2051111 9284472
0.014893335 -0.13405047 1.2030001 9548665
0.014893334 -0.12488094 1.2030001 10009221
0.02518476 -0.1236343 1.202 14474661
0.01623778 -0.11558888 1.2036667 11061650
0.022902098 -0.11428382 1.2024 13358492
0.017433904 -0.10736152 1.2043999 12574885
0.024769286 -0.1046669 1.2027498 13096083
0.0331981 -0.100739 1.202 12964740
0.045463406 -0.10237442 1.202 11782259
0.05036952 -0.100739 1.202 11584606
0.027502222 -0.095120631 1.2033334 12378251
0.032816511 -0.095015235 1.202 12838034
0.047164194 -0.096617907 1.202 13956997
0.054772452 -0.094927184 1.2019999 12576637
0.02904889 -0.086761266 1.204 11257995
0.032511242 -0.085170284 1.202 11060876
0.065442227 -0.083376825 1.2019999 10602097
0.075045496 -0.082931638 1.202 9220451
0.083281428 -0.084712386 1.2019999 9681775
0.066224448 -0.07500159 1.2023333 10272617
0.074471422 -0.074468568 1.2029998 8298592
0.080199994 -0.074468568 1.2030001 7773285
0.058347426 -0.066617146 1.206 9288826
0.085461907 -0.066532388 1.2045 7840107
0.15824001 -0.063064769 1.204 7968603
0.16053334 -0.063064769 1.204 7573090
0.098777153 -0.058577143 1.206 10543493
0.10201792 -0.055020191 1.2036 10408584
0.15719888 -0.055075057 1.2048 6718291
0.16167809 -0.055040002 1.2040001 6193500
0.098777153 -0.045942862 1.206 7841134
0.10437334 -0.045877468 1.2043333 8039022
0.1102629 -0.043645721 1.206 7513974
0.15738665 -0.047370154 1.2033334 7241547
0.16461207 -0.044437591 1.2025332 6521685
0.17171431 -0.045790479 1.202 6270567
0.098777153 -0.039051428 1.206 8694643
0.1135604 -0.037090283 1.202 8497007
0.16742145 -0.036918569 1.202 6982998
0.17400381 -0.034800764 1.2019999 6395234
0.16877475 -0.024354761 1.2035002 7314273
0.17377487 -0.024268951 1.2019999 7445856
0.2055943 0.02182286 1.206 9292669
0.086714298 -0.2219886 1.214 13020297
0.095047615 -0.22253719 1.2169999 13019792
0.10611258 -0.2237871 1.2139999 13938064
0.11284697 -0.22182417 1.2173333 14662550
0.088099815 -0.21725333 1.2107999 13087375
0.095510811 -0.21616295 1.2125883 12824713
0.10510822 -0.21757403 1.2139999 13413263
0.11476953 -0.21589032 1.2147999 14071706
0.12378595 -0.21419358 1.217 14400151
0.13118765 -0.21245435 1.219 14662802
0.1866857 -0.2120381 1.21 13673604
0.22685012 -0.21361527 1.219 11378558
0.23553056 -0.21448629 1.2186666 10264958
0.24375074 -0.21220171 1.2158749 9148274
0.25308761 -0.2136153 1.219 8621941
0.18514924 -0.20896506 1.21 14533009
0.2153524 -0.20688637 1.2113334 13479567
0.22578682 -0.20551762 1.2165625 10917480
0.23494656 -0.20485944 1.2152499 8749927
0.24474148 -0.20435731 1.2133684 7568735
0.25431579 -0.20410819 1.2148999 9603700
0.2289257 -0.1988648 1.214 12099435
0.23559658 -0.19856612 1.2149999 10522983
0.24534804 -0.19543795 1.2138236 10391404
0.25405353 -0.19742709 1.2162222 10980984
0.24718572 -0.18841431 1.21 12103293
0.0069142864 -0.15441903 1.21 8879204
0.0063719894 -0.14506446 1.21 7433051
0.01152381 -0.1405905 1.21 9283447
0.0073965713 -0.1377265 1.2132 9609844
0.01152381 -0.1371333 1.21 9610613
0.00928762 -0.12190005 1.219 11187322
0.01156191 -0.1214 1.214 10399865
0.0077269846 -0.11490773 1.2173333 11646593
0.012317463 -0.11356889 1.2126666 9941112
0.0071442425 -0.10484502 1.2133635 12503696
0.01421905 -0.10415491 1.2106667 12440466
0.02074286 -0.10256191 1.21 15262371
0.0076354286 -0.096205533 1.2141999 13033116
0.015040669 -0.09487123 1.2149 13032614
0.022101166 -0.09534011 1.2143332 13886108
0.015788956 -0.086839244 1.219 13031334
0.025831273 -0.084640004 1.2146666 10994311
0.03341905 -0.080666669 1.21 10794370
0.02644686 -0.077022493 1.2180001 11129475
0.034284193 -0.076199248 1.2159998 11062406
0.045508053 -0.074579403 1.2167271 11589769
0.051985852 -0.074828304 1.2168571 11655560
0.037671432 -0.062887624 1.2171249 9354110
0.045512915 -0.064727306 1.2184443 10078081
0.054059386 -0.064794406 1.2123528 9354361
0.066202149 -0.064613812 1.2114999 7510622
0.075076193 -0.064679615 1.2128 8166499
0.0833489 -0.062939376 1.2126666 7641190
0.093115821 -0.061145913 1.216 8697722
0.037013974 -0.055523604 1.2145554 8563830
0.045228336 -0.054507617 1.21775 7905903
0.055156577 -0.05538515 1.2142 7709290
0.064946584 -0.054707494 1.2136192 7512420
0.075171433 -0.054355845 1.2143124 7970149
0.084401913 -0.054340962 1.214 7444064
0.094285525 -0.054357149 1.2118 7252586
0.054951753 -0.048760001 1.219 8102759
0.06665352 -0.046401735 1.2180909 7908458
0.075249404 -0.045145605 1.2155625 7577700
0.084384292 -0.045081906 1.21375 7182945
0.093843147 -0.044815689 1.2121178 7577963
0.10486665 -0.041485719 1.21 7710060
0.1106286 -0.041485719 1.21 7186285
0.075959459 -0.038477276 1.219 7382374
0.085452959 -0.037649337 1.2126 7053155
0.094972298 -0.034348484 1.2134089 8168050
0.10534485 -0.03471943 1.2155001 9219444
0.11188549 -0.033818096 1.21425 9548922
0.097520001 -0.02670191 1.219 9413758
0.10564665 -0.02786286 1.219 9611646
0.11261235 -0.02786286 1.219 9613690
0.1996838 0.0069657154 1.219 8498796
0.2020057 0.006965715 1.219 8563814
0.19786286 0.015455556 1.2173333 8369014
0.20209606 0.015517552 1.2135714 8367723
0.1970889 0.022027938 1.2173333 9555074
0.20411515 0.025096972 1.2177272 8830599
0.063102856 -0.2313772 1.227 6450538
0.073620006 -0.2267029 1.227 12498832
0.086474292 -0.22670288 1.227 12297339
0.09523505 -0.22687468 1.2254 13282191
0.10203316 -0.22736152 1.223 14858396
0.11764095 -0.22246955 1.223 15188887
0.12477905 -0.22274286 1.2244999 14926996
0.13122983 -0.2220813 1.223 14335636
0.2383886 -0.2220286 1.227 12233090
0.24565367 -0.22229749 1.2263335 12561544
0.25221753 -0.2228488 1.2237999 11900543
0.1188057 -0.2189752 1.223 14400672
0.12540604 -0.2181987 1.223 14203801
0.13311566 -0.21731128 1.2230002 14136721
0.2189752 -0.21548095 1.223 14136212
0.22466962 -0.21638687 1.223 13150601
0.2376114 -0.2189752 1.223 12233604
0.24644619 -0.21760881 1.2235 12104075
0.25325257 -0.21531455 1.2230002 10000250
0.25547111 -0.20965712 1.223 9209709
0.0058428575 -0.1215314 1.227 11317637
0.0033322449 -0.11536056 1.2252856 9607037
0.02096571 -0.090851434 1.223 14017449
0.015535239 -0.084410161 1.2234445 12835502
0.021431616 -0.084328763 1.223 13491616
0.016994013 -0.077314839 1.2247143 12375989
0.02358643 -0.07600072 1.223 13032851
0.034437034 -0.073275991 1.2234445 11262601
0.045425721 -0.074544773 1.223 11720840
0.035484236 -0.06604974 1.2238889 9815170
0.043096196 -0.067556188 1.223 11199118
0.028045719 -0.056091432 1.227 9480550
0.030940481 -0.056628101 1.2260001 9218417
0.047911428 -0.049079999 1.227 8429674
0.064450152 -0.043872703 1.223 7842924
0.06689848 -0.037763428 1.2238001 7449707
0.072215237 -0.036107622 1.223 7580007
0.11764095 -0.01164762 1.223 9746034
0.12439658 -0.013045331 1.223 9613942
0.13511238 -0.01397714 1.223 9347954
0.11787389 -0.0074544759 1.223 8631157
0.12442548 -0.0067816451 1.2240909 8762225
0.13458563 -0.0052118683 1.2263846 8826997
0.14163177 -0.0031111112 1.2256666 8824689
0.12503715 0.0023371431 1.227 7977312
0.14139715 0 1.227 8563056
0.1893086 0.0093485722 1.227 8760703
0.19580269 0.0064176186 1.225 9089647
0.18852954 0.015970478 1.2270001 8765309
0.19448271 0.014985851 1.223857 8500340
0.1893086 0.021034289 1.227 10605457
0.19456731 0.025244126 1.2233334 9618313
0.200339 0.02795429 1.223 8498304
0.2196915 0.026877144 1.227 8496768
0.22553429 0.027461432 1.227 6988128
0.1893086 0.03272 1.227 9158784
0.19629546 0.033145525 1.2254 9350265
0.20333441 0.033668846 1.2250001 9086831
0.2103429 0.03038286 1.227 9025658
0.067097142 -0.23307431 1.2359999 7896931
0.07416001 -0.23248573 1.2359999 10264688
0.082400002 -0.23072 1.2359999 11576698
0.094171435 -0.23072 1.2359999 12889740
0.068053342 -0.2299733 1.232 9670509
0.076266676 -0.22938666 1.232 12104320
0.086044453 -0.22919111 1.232 11904377
0.24522665 -0.22528 1.232 12364935
0.0041066674 -0.12378666 1.232 9607036
0.01877333 -0.070400007 1.232 10937784
0.024708571 -0.071375243 1.2353333 11327117
0.03050667 -0.070400007 1.232 10801546
0.018049525 -0.064742856 1.2359999 10472866
0.024698574 -0.064692862 1.235 10534025
0.031680003 -0.06570667 1.232 9287551
0.01530286 -0.051794291 1.2359999 9154189
0.023854656 -0.054944471 1.2335385 11715727
0.035200004 -0.051626671 1.232 10204537
0.0094171437 -0.045908578 1.2359999 5142591
0.01530286 -0.048262861 1.2359999 9611914
0.024932571 -0.046101846 1.2349334 11318422
0.033601526 -0.046991237 1.2336001 11978633
0.044816583 -0.045370083 1.2345883 8562801
0.01412572 -0.036491431 1.2359999 11585962
0.04316191 -0.033548575 1.2359999 8633216
0.036323268 -0.02421551 1.2359999 7911034
0.041031837 -0.025224488 1.2359999 8110462
0.12789336 -0.01173333 1.232 9220215
0.13504189 -0.011742855 1.2329999 9152889
0.1408 -0.01173333 1.232 8954738
0.12828447 -0.0046933335 1.232 8171631
0.13562858 -0.0076342858 1.2329999 8695670
0.1408 -0.0082133338 1.232 8824947
0.1035886 0.0094171437 1.2359999 10466969
0.12638476 0.0058666677 1.2320001 8569982
0.13472211 0.0044359793 1.2324446 8633210
0.15656005 0.0094171437 1.2359999 5872233
0.096525714 0.015538288 1.2359999 10982772
0.10466885 0.015623948 1.2348572 10200183
0.11539683 0.01587048 1.2343334 7646326
0.12529568 0.015474735 1.2329414 7846266
0.1348822 0.014781497 1.2345715 7912823
0.14302287 0.015891431 1.2359999 6531696
0.15679547 0.013654861 1.2359999 6396268
0.1600914 0.01412572 1.2359999 6790255
0.097702861 0.023542861 1.2359999 10716264
0.10429487 0.023072001 1.2359999 10916461
0.11583086 0.022601144 1.2359999 7189621
0.12456311 0.022686755 1.2359999 7518586
0.13248253 0.021950478 1.2346667 7389050
0.14478855 0.022365715 1.2359999 6136940
0.1577372 0.02825143 1.2359999 7055217
0.21522284 0.026819052 1.232 9418123
0.2236571 0.02825143 1.2359999 8495720
0.17617901 0.033744764 1.2359999 11048823
0.18503927 0.035740189 1.2344 11182191
0.19392003 0.036693335 1.2320001 10526067
0.20711163 0.038040385 1.2327999 9537376
0.21505934 0.033825643 1.2344615 9087860
0.22512981 0.033940684 1.2348572 6988647
0.23072 0.035314288 1.2359999 6066783
0.18598861 0.041200001 1.2359999 10912093
0.19530608 0.043623153 1.2353846 9732696
0.20534445 0.044325866 1.2347692 8948062
0.21282741 0.041906286 1.2359999 9800564
0.068992376 -0.25217909 1.249 9216388
0.075201906 -0.25235754 1.2448571 11973780
0.084391437 -0.25316572 1.2479999 12430991
0.09159334 -0.25217909 1.249 11705206
0.066198409 -0.24537367 1.2486665 8358253
0.074766546 -0.24566953 1.246125 8952693
0.084484592 -0.24509872 1.2442942 9212788
0.093520947 -0.24476379 1.2455832 11574653
0.064788356 -0.23782754 1.2444444 7437156
0.074038096 -0.23708469 1.2405554 8227686
0.085073009 -0.23631811 1.2406666 10064238
0.095131427 -0.2361812 1.244625 12956306
0.1022991 -0.2355257 1.249 14858648
0.014179364 -0.063420638 1.2408333 7839356
0.0094857141 -0.054542858 1.245 4949829
0.015369046 -0.056761112 1.2416666 8892038
0.0094476193 -0.049600001 1.24 5340216
0.01535238 -0.042514279 1.2399999 10271640
0.024091426 -0.040624756 1.24 11975829
0.033820406 -0.041257143 1.2428571 15000733
0.043301586 -0.041333329 1.2399999 8759412
0.015746029 -0.036609523 1.2399999 11913379
0.025295237 -0.03592857 1.2409999 12241053
0.034280952 -0.034285124 1.2412499 13558444
0.044088889 -0.037790481 1.24 8892792
0.01903238 -0.023790481 1.249 11520936
0.02141143 -0.023790481 1.249 9224844
0.033116192 -0.027441904 1.242 10012045
0.058122542 -0.015415556 1.2455 8964483
0.063590005 -0.01842238 1.248 7713650
0.034496192 -0.0035685718 1.249 7911046
0.040443812 -0.0035685715 1.249 7583363
0.017842855 0.0023790479 1.249 8434050
0.02854857 0.001189524 1.249 8830344
0.034496188 0.001189524 1.249 8108670
0.041236829 0.001586032 1.249 7387255
0.086557135 0.0094857141 1.245 9607290
0.09474019 0.0094750477 1.2436 8432008
0.1535238 0.0094476193 1.24 6593895
0.086800009 0.015459048 1.2485 11568236
0.092457332 0.015176952 1.2446998 12095601
0.1015619 0.01417143 1.24 9807739
0.11219046 0.018895241 1.24 7713649
0.13817145 0.018895241 1.24 7061364
0.14703177 0.015769841 1.2416667 6465131
0.15357921 0.016109956 1.2404544 6397798
0.1627638 0.017980952 1.242 7316860
0.088024773 0.022600956 1.249 9281640
0.09490107 0.024882013 1.2474706 9609579
0.10603016 0.02759365 1.2416667 8827002
0.11380082 0.025766235 1.2399999 7386488
0.1251381 0.027217854 1.2424999 7321720
0.13603738 0.025501242 1.242923 6930037
0.14560668 0.025687778 1.2446666 6069870
0.15486121 0.024627302 1.2432001 6397802
0.16323549 0.024762772 1.2436363 7449208
0.098135717 0.031522386 1.249 9096582
0.10580334 0.034477618 1.24825 7981445
0.11526226 0.034463689 1.2476875 6207857
0.12458286 0.034238476 1.2481999 6337394
0.13441619 0.030927621 1.249 6534253
0.15715374 0.033762667 1.2481999 6927990
0.16491748 0.034410715 1.2458125 7583357
0.17312759 0.035900954 1.2399999 9087352
0.21847615 0.037790481 1.24 8820075
0.2251683 0.033853974 1.24 7907431
0.10562972 0.040919621 1.249 7653257
0.11419427 0.040443812 1.249 6077561
0.1213314 0.040443812 1.249 6534259
0.1593962 0.040443812 1.249 8443005
0.1662671 0.044632383 1.2483845 9231505
0.17505869 0.044951621 1.242 9159294
0.18490341 0.04639456 1.2399999 8957811
0.1936762 0.047912925 1.2399999 7711338
0.20430475 0.049600001 1.24 6993011
0.21596664 0.045909524 1.2399999 8363635
0.22518617 0.044859253 1.243 7903334
0.23183453 0.046019047 1.24675 7634528
0.1689124 0.052339051 1.249 11069869
0.17509416 0.055512805 1.2460001 11064993
0.18507294 0.055869315 1.2421665 10012566
0.19509359 0.055576194 1.2414999 8040832
0.20488144 0.055669051 1.2435 7647870
0.21439971 0.055256873 1.2457142 8169338
0.22365779 0.0541327 1.2476666 9082988
0.23195714 0.052339051 1.249 8093281
0.17525654 0.063441277 1.249 12902576
0.18470645 0.065046459 1.246778 11390370
0.19533123 0.065597564 1.2472224 9945745
0.20537668 0.065290958 1.2465 8958853
0.21221101 0.065661713 1.249 9351298
0.1855657 0.071371429 1.249 13748149
0.19349591 0.072560959 1.249 11978661
0.20596574 0.07208699 1.2476667 10467993
0.064491428 -0.2484114 1.2539999 8489847
0.096737146 -0.2448286 1.2539999 13083773
0.10032 -0.2436343 1.2539999 12683893
0.10151429 -0.23885719 1.2539999 14594951
0.03821715 -0.042994291 1.2539999 12701298
0.015525715 -0.023646861 1.2539998 13294011
0.02149714 -0.02149714 1.2539999 8561545
0.0071666664 -0.014336191 1.2544998 11586489
0.015543573 -0.015538811 1.2552499 12899254
0.022321904 -0.015543175 1.2556666 9617040
0.055812702 -0.011958733 1.2556666 9756817
0.065073907 -0.015309714 1.2559999 9289603
0.0061542862 -0.0082057146 1.256857 12567464
0.014780317 -0.0087866671 1.2581666 11910563
0.027494766 -0.0035876194 1.25525 8699284
0.053742856 -0.0095542856 1.2539999 10404491
0.018385397 0.0047961907 1.2589999 8237700
0.025058795 0.0044713658 1.2569999 8764297
0.034371782 0.0069641559 1.2562726 7977084
0.045106191 0.005190318 1.2573332 7715708
0.052758098 0.0023980951 1.2589999 8437636
0.082567625 0.009573333 1.2565 9799270
0.082567625 0.015556667 1.2564999 10192735
0.085271522 0.025235325 1.2562726 9028475
0.090765722 0.02866286 1.2539999 9031302
0.1433143 0.02866286 1.2539999 6266223
0.087014399 0.034330372 1.2573333 9885852
0.094033204 0.035157014 1.254357 9819289
0.10032 0.037022866 1.2539999 9490591
0.1289829 0.03821715 1.2539999 5550191
0.13429293 0.035603054 1.2544998 6074219
0.14439619 0.031912703 1.2564999 5873001
0.15272859 0.032942861 1.25775 6333807
0.088729531 0.041966666 1.2589999 10210455
0.094847627 0.043752249 1.2561427 9752473
0.10477865 0.045223616 1.2539998 8701578
0.11612133 0.045015391 1.2539998 6534772
0.12574106 0.044464894 1.2549999 5812334
0.13365369 0.043836575 1.2574999 5943406
0.15780285 0.044236194 1.25525 8575637
0.16272143 0.045084286 1.2539998 9755798
0.097522549 0.051159371 1.2589999 11262371
0.10587998 0.054200672 1.25625 8440976
0.11551969 0.054507412 1.2562222 6076534
0.12465683 0.053175937 1.2585454 5616242
0.13309425 0.050360002 1.2589999 6205552
0.16444479 0.055542767 1.2553636 12051887
0.2185543 0.059714291 1.2539999 7381887
0.22594385 0.057982381 1.25525 8493422
0.23150794 0.056681905 1.2573333 7437916
0.1127105 0.062350482 1.2589999 6469492
0.16660382 0.06542711 1.2578461 15460301
0.17445025 0.068407379 1.2546248 14016973
0.21683022 0.065668844 1.256857 8169853
0.22242337 0.06295 1.2589999 7842689
0.1654686 0.073141903 1.2589999 13560799
0.17565283 0.074481793 1.2586668 14873559
0.18518004 0.075541094 1.2549998 14149325
0.19490743 0.076673165 1.2539998 12177579
0.20402952 0.076313823 1.2552499 10861732
0.21387351 0.07460054 1.2575713 10664842
0.17985711 0.081535242 1.2589999 10931133
0.18608592 0.083062015 1.2578888 11125412
0.1952527 0.083851598 1.2577499 10010010
0.20452328 0.082905583 1.2589999 10007442
0.1654686 0.095923811 1.2589999 8235141
0.066157147 -0.01202857 1.263 10862739
0.072171427 -0.01202857 1.263 11452057
-0.0024152379 -0.0036228569 1.268 8612153
0.0040726741 -0.0048209527 1.2653078 11967357
0.016141143 -0.004336 1.2645 9808013
0.023316612 -0.006161693 1.2663335 9877409
0.055351429 -0.0048123808 1.2635002 8567415
0.063941307 -0.0060291667 1.2667499 10929559
0.073664762 -0.0060380953 1.2679999 10596748
0.0066740611 0.0044036973 1.2674116 12374447
0.014784887 0.0051474283 1.2656666 8433536
0.023255236 0.0088209519 1.263 8569482
0.038491432 0.009622857 1.263 7779956
0.044104759 0.009622857 1.263 7912059
0.054443914 0.0052471706 1.2653531 8371584
0.063776687 0.0039774785 1.2677057 10206614
0.074368797 0.0049427659 1.2672857 9739386
0.017500956 0.014485478 1.267375 11583360
0.025321305 0.01568 1.2661248 11716740
0.034961432 0.015676431 1.2658126 7651967
0.044593811 0.015672859 1.2654999 7519358
0.052897487 0.015365369 1.2675453 7387519
0.060380951 0.01207619 1.268 9155723
0.078377381 0.015674047 1.266125 9018725
0.02294476 0.02173714 1.268 13223045
0.035020955 0.02173714 1.268 8374663
0.047097147 0.02173714 1.268 7323008
0.078455955 0.025349287 1.267375 9358982
0.081794277 0.026462859 1.263 9293963
0.079099052 0.033209525 1.268 10081947
0.082871556 0.035420138 1.2637144 10147486
0.1395314 0.037288569 1.263 5811301
0.14596248 0.03661162 1.2645003 5676130
0.15406571 0.037313968 1.2638334 6663799
0.079702862 0.041059051 1.268 11526816
0.085075781 0.044952102 1.2658571 10739109
0.09262 0.048114281 1.263 9952669
0.13832855 0.044505712 1.263 5942122
0.14538804 0.044932276 1.2674444 6135394
0.15431967 0.044612061 1.2659167 6797692
0.086948574 0.053574372 1.2679999 9622943
0.094518669 0.054861248 1.2649232 9885604
0.10104 0.056534287 1.263 9686677
0.12894633 0.055812575 1.263 5681265
0.13506915 0.054893143 1.2639999 5876080
0.14322363 0.055067431 1.2679999 6070636
0.15678094 0.054271426 1.2663332 10279832
0.096609525 0.062192373 1.268 10147220
0.10453685 0.064413197 1.2658571 9031313
0.11480367 0.064440146 1.2637693 6600821
0.12472708 0.06357196 1.2646667 5877871
0.13432442 0.064096697 1.2679999 5153381
0.14410917 0.061991107 1.268 5740141
0.15657054 0.063706808 1.2676152 13036749
0.16262631 0.065916568 1.263 15989728
0.2261371 0.065221578 1.263 9283706
0.23312762 0.063437253 1.2646667 8421730
0.096609533 0.075476177 1.268 10208137
0.10496996 0.073014498 1.2679999 8305541
0.11483359 0.072457135 1.2679999 7188858
0.12438475 0.071249522 1.268 5870949
0.13421823 0.071077004 1.268 5076834
0.15819809 0.073362857 1.268 11394754
0.16460636 0.075801387 1.2646668 12704966
0.17369254 0.078907423 1.263 13098187
0.21685798 0.077326529 1.2629999 9745806
0.22578093 0.074858099 1.2677498 9611131
0.23266791 0.076482534 1.268 8419683
0.095401913 0.086948574 1.268 10341264
0.10144 0.084533326 1.268 8104540
0.15721381 0.085396193 1.267375 8237189
0.16544379 0.085740946 1.2679999 9683868
0.17466961 0.085531428 1.2648752 10145447
0.1836362 0.087407619 1.263 10931107
0.19486287 0.089011423 1.263 8698004
0.20529006 0.086999729 1.2637144 7383170
0.21392383 0.084913589 1.2670909 8035451
0.089363813 0.091779053 1.268 9815689
0.15940569 0.095401913 1.268 8038258
0.16473101 0.095347553 1.2660769 9023620
0.17523894 0.09473101 1.268 9944726
0.18428269 0.093711242 1.2679999 10340767
0.19525959 0.094814226 1.2676666 8762509
0.2045521 0.095123239 1.2679999 7642740
0.21447317 0.095482431 1.2679999 8366455
0.2236812 0.096463107 1.266125 9680517
0.15940569 0.1026476 1.268 7907698
0.16516465 0.10430307 1.2668889 7843189
0.21656637 0.10224507 1.268 12251301
0.2237314 0.10104 1.263 9806450
-0.0038803816 -0.0063051432 1.273 9723714
-0.0044758981 0.0054055681 1.2727693 7054194
0.00090857141 0.0057542864 1.272 11061913
0.065417148 0.0096914293 1.272 10006665
0.070262857 0.0096914293 1.272 9806976
-0.0036485714 0.014594285 1.277 10142103
0.0051012533 0.015570325 1.2730525 12508852
0.013931431 0.016960002 1.272 10736267
0.057663999 0.01647543 1.272 8042372
0.064464509 0.015995301 1.2723333 10203785
0.072685719 0.015748572 1.2720001 9219449
0.0066842865 0.024512226 1.2761668 11786670
0.015773574 0.02548703 1.2741876 11327899
0.025786128 0.025959184 1.2720001 11393427
0.035131428 0.026651427 1.2720001 8770957
0.044476736 0.025959184 1.2720001 7650943
0.054230753 0.024950754 1.2734287 7453062
0.064394996 0.02308619 1.27575 9549954
0.072802387 0.025484445 1.2740834 8043136
0.0097295241 0.031620961 1.277 12967873
0.017321192 0.033733815 1.2763751 14414539
0.02599456 0.034837686 1.2737857 13496765
0.035184406 0.035187382 1.273875 9622413
0.044277508 0.034566306 1.2750771 7389568
0.052668255 0.033221908 1.2761666 6994814
0.07568156 0.035525888 1.2742728 9689497
0.02918857 0.04135048 1.277 15071208
0.0389181 0.04135048 1.277 9097320
0.04135048 0.04135048 1.277 7193457
0.077900104 0.044745401 1.2736666 10411686
0.078895241 0.054621432 1.2744999 9294226
0.083346285 0.056210291 1.272 9292955
0.14571758 0.053995106 1.272 5939306
0.15160163 0.053995103 1.272 7452793
0.078198858 0.063631244 1.2749999 9753247
0.085156299 0.064479202 1.273579 10344865
0.094491437 0.066022865 1.272 10541990
0.1381029 0.067840002 1.272 5735266
0.14449041 0.064976625 1.2720001 5737574
0.15142855 0.065417148 1.272 8833184
0.2362286 0.067840002 1.272 8681571
0.08665321 0.074056074 1.2748126 10601888
0.095400006 0.07495714 1.272 9881503
0.10556735 0.078569792 1.272 8829328
0.1149511 0.078069843 1.272 8101752
0.1248873 0.077311173 1.2720001 6390629
0.13408974 0.076380953 1.273 6128734
0.14456381 0.070262857 1.272 6328173
0.15393713 0.075151429 1.2727144 7190159
0.2347143 0.07298857 1.272 8747364
0.088434294 0.082377143 1.272 10602129
0.095733024 0.085634612 1.2724167 10669970
0.10582898 0.086254738 1.2743335 7184492
0.11496279 0.086022109 1.2733333 7776365
0.12445683 0.08270096 1.277 8298857
0.13378097 0.081079371 1.277 7643763
0.1483752 0.089998104 1.277 6463576
0.15415372 0.086042866 1.2725 7054958
0.21684569 0.088434294 1.272 7050090
0.22435658 0.08625371 1.272 8557430
0.2301714 0.08358857 1.272 8943727
0.088434301 0.095702864 1.272 8502386
0.095054105 0.094322488 1.273 8565880
0.10580859 0.093646675 1.277 7055713
0.11471504 0.092844576 1.2759999 7711338
0.14715904 0.09243048 1.277 6987362
0.15388833 0.095727265 1.2723124 7446378
0.16838861 0.09449143 1.272 10142115
0.17548409 0.09656816 1.272 10073230
0.18615623 0.09852954 1.272 9611409
0.1914057 0.098125726 1.272 9613972
0.20352 0.099337153 1.272 7775103
0.21482666 0.096914299 1.272 8962935
0.22451811 0.09328001 1.272 9283707
0.089645721 0.10176 1.272 6331758
0.092068583 0.10176 1.272 6658925
0.15546604 0.10324127 1.2753333 7840884
0.16677333 0.10579812 1.272 7843444
0.17589213 0.10429854 1.276091 8302965
0.18595572 0.10452574 1.2761668 9289076
0.19495688 0.10528834 1.2748573 10340989
0.20523381 0.10565743 1.2751251 8897406
0.21321143 0.10487511 1.272 11533224
0.16613002 0.11277238 1.27325 7712370
0.1702667 0.1131057 1.277 7644784
0.1921581 0.1216191 1.277 5938532
-0.007325714 0.002441905 1.2819999 8496755
-0.006924287 0.016292064 1.2828332 10928533
0 0.01953524 1.2819999 14022630
-0.0024514289 0.025739999 1.2869999 15200474
0.0021366668 0.027193572 1.2832499 14608597
0.057384767 0.02930286 1.2819999 6862469
0.064710476 0.028081907 1.2819999 6860151
0.0057661231 0.034963265 1.2848569 14543813
0.014346189 0.036933813 1.2819999 14940128
0.02197714 0.037849523 1.2819999 15793896
0.048024129 0.038256507 1.2819999 6929279
0.056276191 0.036700953 1.2844999 6665850
0.064867035 0.035498098 1.2851248 5678186
0.071303621 0.036140192 1.2819999 6797953
0.0089885714 0.044534285 1.2869998 11395264
0.015917024 0.045310367 1.2857499 13233876
0.025454856 0.045529906 1.285 14611682
0.035218038 0.045494352 1.2839999 12642744
0.045515299 0.045517847 1.2846665 7454080
0.054510161 0.044303015 1.2861664 7124345
0.065943435 0.044125713 1.2869998 5873515
0.072824001 0.045700766 1.2829998 7521421
0.01716 0.052297145 1.2869999 9359785
0.026965711 0.052880816 1.2869998 10672312
0.035545714 0.055157136 1.2869999 8499096
0.044502858 0.055439994 1.2869998 6988411
0.057608571 0.058834281 1.2869999 7184495
0.064962864 0.058834281 1.2869999 8634493
0.073658355 0.055190649 1.2851815 7848848
0.037997145 0.061285719 1.2869999 7774853
0.0429 0.061285719 1.2869999 7379836
0.057608571 0.063737147 1.2869998 7251564
0.064962864 0.062511437 1.2869998 8108927
0.073606402 0.064489178 1.2842726 8371083
0.077282295 0.072881147 1.2839999 8431240
0.082210802 0.07651303 1.2819999 9087630
0.084245712 0.080582857 1.2819999 8760699
0.1196533 0.087908573 1.2819999 7514473
0.12669256 0.086578667 1.2839999 7972456
0.13482857 0.087025709 1.2869998 8039020
0.11561789 0.09700229 1.2859999 8368237
0.12077839 0.094671123 1.2853333 7973997
0.14773524 0.096455246 1.2819999 7313511
0.1127657 0.10296 1.2869999 8895347
0.1225714 0.10296 1.2869999 8894836
0.14846781 0.10304838 1.2819999 8100977
0.15139811 0.1050019 1.2819999 8167794
0.2002362 0.10866475 1.2819999 11062648
0.16669716 0.1176686 1.2869999 8105335
0.1946324 0.1236974 1.2841427 5872479
0.2010171 0.1225714 1.2869999 6068837
-0.0061595235 0.025874767 1.2934999 13032896
-0.0032850795 0.035290793 1.2926666 14345435
0.0014754286 0.03786933 1.291 13888211
-0.0024685711 0.045668572 1.296 12636085
0.0031616329 0.045894019 1.2924286 9553058
0.057172853 0.048566189 1.291 6924662
0.063525401 0.047541585 1.291 6200936
-0.0024685711 0.053074285 1.296 12309424
0.0049180957 0.055371422 1.2920002 9879704
0.015700074 0.055990618 1.2910001 9879961
0.024863703 0.057104547 1.291 9352080
0.049180951 0.054099049 1.291 7315318
0.055009928 0.054832239 1.2917144 6986611
0.06518539 0.054116506 1.2914168 7711090
0.071312383 0.054099049 1.291 6863234
0.001229524 0.061595239 1.2934999 10209932
0.016916463 0.063090891 1.2952858 11060905
0.026032804 0.063307092 1.2948889 11650465
0.035613626 0.065548867 1.2929231 9024132
0.045843668 0.065691695 1.2910001 7712624
0.052693877 0.064637825 1.291 7119983
0.01974857 0.074057139 1.296 10407077
0.024685714 0.074057147 1.296 11134366
0.039497141 0.071588568 1.296 7912568
0.12664095 0.08852572 1.291 7841637
0.12664095 0.090984762 1.291 7841634
0.11673979 0.10295012 1.293 9615478
0.12157027 0.10336001 1.2919999 8893560
0.1598381 0.1180343 1.291 7580284
0.1622971 0.1180343 1.291 7711355
0.17336285 0.1180343 1.291 8564348
0.20538513 0.117504 1.296 8501623
0.1598381 0.1204933 1.291 7383167
0.16463603 0.1239665 1.2942142 7776895
0.17218286 0.12281142 1.296 8430718
0.18794858 0.12639616 1.2926666 6723943
0.19456573 0.12806858 1.293 6129759
0.2044962 0.12237236 1.2935001 6988133
0.19446857 0.13302858 1.296 6325601
-0.01239048 0.01982476 1.301 10393225
-0.012402385 0.026048575 1.30225 9737609
-0.0099123819 0.026020003 1.301 10992290
-0.0124381 0.032339051 1.306 9738632
-0.0074509527 0.035690479 1.3034999 12308153
-0.0062059523 0.045911431 1.3028749 13425100
-0.0033041269 0.056170162 1.301 11851955
0.0074533336 0.063899323 1.3045713 10074758
0.015541667 0.067445725 1.3053749 10337677
0.025867486 0.068399459 1.3024285 12178333
0.032215241 0.069386669 1.301 9617801
0.0099504767 0.079603814 1.306 8370815
0.0160091 0.07729736 1.3043332 9486732
0.026639484 0.076306149 1.303727 10475153
0.034154762 0.074835956 1.304125 8632696
0.046020955 0.087066673 1.306 7385965
0.11812257 0.10821017 1.301 9287294
0.1265067 0.10728119 1.3022499 8565111
0.13184381 0.1069676 1.306 7711091
0.12438097 0.11194291 1.306 8434300
0.15776064 0.12670828 1.3043333 9873802
0.16479334 0.128861 1.301 8626567
0.17574906 0.12668766 1.304125 8494210
0.18313557 0.12761527 1.3051666 8891261
0.20538287 0.12836194 1.3043333 6655079
0.0074914293 0.068921149 1.311 9747841
0.01498286 0.069920003 1.311 10271102
0.0068121213 0.07675723 1.3114545 8829057
0.013734285 0.073665723 1.311 9879430
0.037813883 0.077768169 1.311 7976821
0.04245143 0.078660011 1.311 8238705
0.0078035723 0.08521501 1.311 7777144
0.016236981 0.084930651 1.3114166 8303489
0.025889007 0.084706165 1.3114545 9421695
0.035554584 0.085722513 1.3117692 8566138
0.04396496 0.085933164 1.3115 7778160
0.015040001 0.090240002 1.316 7317630
0.021306666 0.090240002 1.316 8036226
0.035093341 0.090240002 1.316 8894586
0.043866668 0.092120014 1.316 7972716
0.13484573 0.10820949 1.311 7512438
0.085552387 0.1168891 1.3121537 9806210
0.095465146 0.11795466 1.312 8161390
0.1027733 0.1178133 1.316 8096127
0.11721907 0.11472308 1.3128749 8892554
0.12515257 0.11641163 1.3115 8824958
0.13485868 0.11229865 1.316 7245173
0.1403733 0.11154665 1.316 8228729
0.015136192 0.095367245 1.3245001 8036735
0.024084834 0.094978616 1.3256155 8558216
0.035313975 0.093754925 1.3243333 8894596
0.043233812 0.096564531 1.3253751 8431999
0.013878333 0.10471476 1.3247501 11447978
0.023730285 0.10501513 1.3253334 11383211
0.034349721 0.10506974 1.3260001 11317673
0.04091657 0.10405944 1.326 10334113
