# .PCD v0.7 - Point Cloud Data file format
VERSION 0.7
FIELDS x y z rgba
SIZE 4 4 4 4
TYPE F F F U
COUNT 1 1 1 1
WIDTH 109
HEIGHT 1
VIEWPOINT 0 0 0 1 0 0 0
POINTS 109
DATA ascii
1.078629 -0.4224 1.98 11439719
1.0889601 -0.44013709 1.992 11111787
1.0940189 -0.44519615 1.992 11243117
1.0889601 -0.43254861 1.992 11702375
1.092754 -0.43254861 1.992 11766380
1.0870631 -0.4287543 1.992 11637089
1.092754 -0.4287543 1.992 12227181
1.098789 -0.45401329 2.003 11438955
1.102604 -0.45401329 2.003 11438191
1.098789 -0.44638291 2.003 11243372
1.102604 -0.44447523 2.003 11439982
1.0968809 -0.43875241 2.003 11439722
1.1072905 -0.46440959 2.0150001 11699546
1.1015331 -0.44905719 2.0150001 11177062
1.1138844 -0.46331429 2.027 11633765
1.108094 -0.45559239 2.027 11242858
1.104232 -0.44014859 2.027 11637606
1.1185369 -0.4738248 2.039 11897951
1.122421 -0.4738248 2.039 11633510
1.11077 -0.44663811 2.039 11701868
1.106886 -0.43887049 2.039 11309411
1.087467 -0.41556761 2.039 12886398
1.079699 -0.40779999 2.039 12951424
1.1173069 -0.4609867 2.0510001 11766887
1.121213 -0.4648934 2.0510001 11505522
1.1173069 -0.4551267 2.0510001 11766369
1.06652 -0.4414534 2.0510001 8351576
1.1134 -0.4492667 2.0510001 12032112
1.08996 -0.4141067 2.0510001 12754813
1.1199141 -0.4833315 2.063 12300406
1.123844 -0.4833315 2.063 12495725
1.1199141 -0.47940189 2.063 12754549
1.068831 -0.44403619 2.063 8548436
1.07276 -0.44796571 2.063 8481883
1.1199141 -0.44796571 2.063 11572581
1.068831 -0.43617719 2.063 8416865
1.07276 -0.43617719 2.063 8220511
1.1002671 -0.42438859 2.063 13017983
1.0924079 -0.4165296 2.063 12885892
1.123017 -0.48440003 2.076 10917500
1.126971 -0.47056001 2.076 12230521
1.132903 -0.47253716 2.076 11768430
1.0933599 -0.46265149 2.076 8480083
1.103246 -0.46265149 2.076 9073763
1.126971 -0.46462864 2.076 12361069
1.0861107 -0.45210671 2.076 8415063
1.0966554 -0.45606101 2.076 9138277
1.119063 -0.45078859 2.076 12755056
1.124994 -0.45474291 2.076 12294506
1.077543 -0.44288 2.076 8286295
1.0847925 -0.4455162 2.076 8218712
1.0973146 -0.44485715 2.076 11767663
1.119063 -0.44485715 2.076 12820337
1.1243349 -0.4441981 2.076 11703400
1.0973146 -0.43892571 2.076 12689014
1.105882 -0.43628955 2.076 13018489
1.1137906 -0.43760765 2.076 12950906
1.099292 -0.42310861 2.076 12886156
1.103246 -0.42310861 2.076 12886148
1.0929645 -0.41599092 2.076 12951161
1.07952 -0.40333721 2.076 11309425
1.0854516 -0.40531436 2.076 12161400
1.077543 -0.39938289 2.076 12291689
1.1255313 -0.4931657 2.0880001 8218449
1.1255312 -0.48620576 2.0880001 9730656
1.133486 -0.48123431 2.0880001 12426874
1.1354744 -0.47725719 2.0880001 11966581
1.1076345 -0.46134859 2.0880001 9927271
1.1155884 -0.46532571 2.0880001 11441008
1.1279178 -0.46453029 2.0880001 12230258
1.0976911 -0.45538285 2.0880001 8741971
1.1066402 -0.45438859 2.0880001 11178096
1.1155884 -0.45538288 2.0880001 12492406
1.124537 -0.45637715 2.0880001 12492407
1.0897371 -0.4414629 2.0880001 8875868
1.0961002 -0.4446446 2.0880001 9664866
1.1066402 -0.44742858 2.0880001 12556151
1.1155885 -0.44742855 2.0880001 12951675
1.121554 -0.44742855 2.0880001 12886653
1.0849646 -0.43589488 2.0880001 8547919
1.0957025 -0.43748569 2.0880001 11374447
1.105646 -0.43549716 2.0880001 12821114
1.1162513 -0.43616 2.0880001 13280121
1.0850972 -0.4248915 2.0880001 10062691
1.0957025 -0.42555434 2.0880001 12952187
1.1046517 -0.42853719 2.0880001 12821121
1.0877485 -0.41561145 2.0880001 12821112
1.093714 -0.41561145 2.0880001 12819576
1.077806 -0.40368 2.0880001 12227941
1.08576 -0.40831998 2.0880001 12031084
1.1285371 -0.48423049 2.1010001 9532009
1.1338731 -0.48156258 2.1010001 11771005
1.146546 -0.48423049 2.1010001 12032881
1.127203 -0.47489274 2.1010001 10784893
1.1338731 -0.47489274 2.1010001 11967871
1.1285371 -0.4662219 2.1010001 12361587
1.096522 -0.43420666 2.1010001 10325092
1.101858 -0.43487361 2.1010001 12491124
1.084516 -0.42286792 2.1010001 9599073
1.096522 -0.42820379 2.1010001 11443329
1.0855166 -0.41519761 2.1010001 11572587
1.127467 -0.49125341 2.1140001 8282440
1.131493 -0.49125341 2.1140001 8282190
1.15364 -0.49125341 2.1140001 12296045
1.1335065 -0.48521334 2.1140001 8941673
1.0851865 -0.41474667 2.1140001 9993578
1.0912271 -0.4147467 2.1140001 11839084
1.0872 -0.40468001 2.1140001 12822381
1.0872 -0.39864001 2.1140001 13544074
