# .PCD v0.7 - Point Cloud Data file format
VERSION 0.7
FIELDS x y z rgba
SIZE 4 4 4 4
TYPE F F F U
COUNT 1 1 1 1
WIDTH 1232
HEIGHT 1
VIEWPOINT 0 0 0 1 0 0 0
POINTS 1232
DATA ascii
-0.21333845 -0.49375749 1.732 1509639
-0.20784 -0.49815619 1.732 1509896
-0.27299622 -0.48496002 1.732 1837842
-0.26392379 -0.48496005 1.732 1576717
-0.24454194 -0.48496002 1.7320001 2429201
-0.2210362 -0.48825911 1.732 1510148
-0.2111391 -0.48660955 1.732 1771787
-0.20454097 -0.48331049 1.732 2627347
-0.26260418 -0.47440305 1.732 1184012
-0.25402665 -0.47506291 1.7320001 2234131
-0.24346974 -0.4757227 1.732 2496282
-0.22268575 -0.47176379 1.732 986376
-0.21278863 -0.4742381 1.732 920332
-0.20406966 -0.47412029 1.7320001 3221273
-0.27217144 -0.4651657 1.732 918279
-0.26458365 -0.46582556 1.732 1707272
-0.25732571 -0.46846479 1.732 2231824
-0.2408305 -0.46351621 1.732 2759192
-0.23505712 -0.46351621 1.732 1972498
-0.2233927 -0.46469444 1.7320001 1117956
-0.21443813 -0.46406603 1.732 855051
-0.20344128 -0.46571556 1.732 4139297
-0.2276343 -0.45856759 1.732 1184263
-0.26392385 -0.31230986 1.732 4927267
-0.25402668 -0.31176004 1.732 4598053
-0.2474286 -0.31011051 1.732 4665379
-0.2622743 -0.30681139 1.732 5256997
-0.25402671 -0.30681139 1.732 4599845
-0.24346976 -0.30417219 1.732 4993829
-0.23753139 -0.3018629 1.732 4535329
-0.23340759 -0.29608956 1.732 3812119
-0.2276343 -0.29526481 1.732 2496781
-0.2874032 -0.52285272 1.7410001 1445134
-0.2332387 -0.50185019 1.7410001 1247749
-0.22715905 -0.50074482 1.7410001 722692
-0.2155524 -0.50074482 1.7410001 1377545
-0.23450199 -0.49363869 1.7410001 1248007
-0.22749066 -0.4941124 1.7409999 985859
-0.21638146 -0.49328336 1.7410001 1444102
-0.27856001 -0.4858219 1.7410001 3412000
-0.24373999 -0.48416382 1.7410001 2494741
-0.2374392 -0.48350057 1.7409999 1904656
-0.22439557 -0.48361111 1.7410001 1182471
-0.2161051 -0.48416379 1.7410001 1247497
-0.25368857 -0.47089911 1.7410001 2692120
-0.24595082 -0.47310987 1.7410001 2758689
-0.23544949 -0.4742153 1.7410001 2035731
-0.22682743 -0.47554174 1.7409999 1248008
-0.2161051 -0.47366259 1.7410001 985866
-0.20892 -0.47089911 1.7410001 853771
-0.27524379 -0.46537209 1.7410001 2167813
-0.26529527 -0.46426672 1.7410001 1773063
-0.25600988 -0.46625644 1.7409999 2561299
-0.2459508 -0.46426675 1.7410001 3283991
-0.23478624 -0.46294022 1.7409999 1775628
-0.22550099 -0.46316132 1.7410001 1183749
-0.21621564 -0.46360344 1.7409999 920332
-0.20726189 -0.46426669 1.7410001 2298126
-0.26861149 -0.4576343 1.7410001 1771784
-0.24429269 -0.4565289 1.7410001 2693395
-0.2371076 -0.4576343 1.7410001 2168589
-0.22881711 -0.4576343 1.7410001 1249801
-0.26861149 -0.3216705 1.7410001 4665376
-0.27524379 -0.31669626 1.7410001 3349536
-0.26363713 -0.31669623 1.7410001 4926243
-0.25534666 -0.31835431 1.7410001 4532770
-0.24539809 -0.31282732 1.7410001 4469027
-0.2420819 -0.3084057 1.7410001 4732197
-0.2337914 -0.30177331 1.7410001 3812884
-0.22881711 -0.30177331 1.7410001 2760205
-0.28444448 -0.52444452 1.75 1247754
-0.28 -0.52500004 1.75 1379337
-0.23416665 -0.48750001 1.75 1576715
-0.22888891 -0.4877778 1.75 1379591
-0.22 -0.48666671 1.75 1313031
-0.28143999 -0.46404094 1.7589999 4665091
-0.27666667 -0.46444449 1.75 2233090
-0.26500005 -0.46500003 1.75 1708297
-0.25583339 -0.46416673 1.75 2628119
-0.25 -0.4633334 1.75 3350039
-0.21333329 -0.4633334 1.75 1116180
-0.20833334 -0.4633334 1.75 2232591
-0.27456748 -0.45593089 1.7535999 1442572
-0.26563001 -0.45637798 1.7525713 1838859
-0.25666669 -0.45666668 1.75 2299925
-0.24722223 -0.45555556 1.75 2496021
-0.23556453 -0.45528933 1.751125 1904653
-0.2259782 -0.45560056 1.7540908 1575947
-0.21610413 -0.45700052 1.7545 1575442
-0.20797105 -0.45739889 1.7553999 3023376
-0.27337548 -0.44570923 1.7549999 1705227
-0.26568577 -0.44614005 1.7544999 1904140
-0.25681147 -0.44692004 1.7509999 2692885
-0.24544676 -0.44643563 1.7541541 2300432
-0.23530911 -0.44690549 1.7557273 1773836
-0.2244819 -0.4481262 1.7589999 1248012
-0.28143999 -0.43388671 1.7589999 8024402
-0.27454072 -0.43524113 1.7577142 4002574
-0.26490942 -0.43568274 1.7579999 1970189
-0.25592989 -0.43595722 1.7532727 2823958
-0.24628556 -0.43602082 1.75525 2890004
-0.23620856 -0.43891239 1.7589999 1839118
-0.27092573 -0.42812383 1.7559999 920072
-0.26301241 -0.42886099 1.7589999 2364174
-0.2546362 -0.42886099 1.7589999 2889237
-0.24626 -0.42886099 1.7589999 2559253
-0.27138859 -0.3316972 1.7589999 4271915
-0.26133719 -0.3316972 1.7589999 4335644
-0.2546362 -0.3316972 1.7589999 4138528
-0.24793521 -0.3316972 1.7589999 3943206
-0.53272569 -0.3249962 1.7589999 4196896
-0.52937531 -0.3249962 1.7589999 3674653
-0.27523717 -0.32528007 1.7515 3548195
-0.26453835 -0.3260054 1.7535999 4729372
-0.25502774 -0.32571951 1.7551428 4336159
-0.2439249 -0.32571596 1.7577143 4075296
-0.23788381 -0.3249962 1.7589999 4600616
-0.52937531 -0.3149448 1.7589999 5981497
-0.24520572 -0.3186048 1.7515 4206882
-0.23696685 -0.31462252 1.7571999 4273452
-0.53272569 -0.30824381 1.7589999 5718070
-0.23666666 -0.30833334 1.75 4141602
-0.23 -0.3066667 1.75 3023894
-0.054277718 -0.30288309 1.7590001 5455405
-0.043556195 -0.3023805 1.7589999 5652512
-0.035180002 -0.30154291 1.7589999 5782825
-0.062318854 -0.29417178 1.7590001 5983044
-0.05360762 -0.29484189 1.7589999 6376763
-0.043975003 -0.2944231 1.7589999 6114351
-0.033923574 -0.2944231 1.7589999 5718830
-0.024123428 -0.2928316 1.7590001 6045737
-0.053188812 -0.28520933 1.7589999 5194807
-0.043975003 -0.28437167 1.7589999 5459769
-0.033504765 -0.28479049 1.7589999 6313280
-0.023453332 -0.28479052 1.7589999 6378301
-0.016752381 -0.28311524 1.7589999 6311229
-0.050257139 -0.27473909 1.7589999 3087133
-0.046906669 -0.27306384 1.7589999 3740183
-0.034342382 -0.27725196 1.7589999 4800308
-0.022113144 -0.2760793 1.7590001 5985094
-0.015914764 -0.27557674 1.7589999 6444098
0.013401907 -0.27138859 1.7589999 6639672
0.024123428 -0.27272877 1.7590001 6308133
-0.52669489 -0.26267737 1.7590001 6508585
-0.031829525 -0.2646876 1.7589999 6570513
-0.02010286 -0.26803809 1.7589999 2890270
-0.016752381 -0.26803809 1.7589999 4138538
0.015412194 -0.26535773 1.7590001 6968391
0.022113143 -0.26602784 1.7590001 6900790
-0.5282585 -0.25686988 1.7589999 6841400
-0.28456381 -0.46136391 1.768 6704159
-0.28512508 -0.45687366 1.768 7494189
-0.21552759 -0.45350608 1.768 1050648
-0.28288001 -0.44452575 1.768 6049077
-0.27951241 -0.44284189 1.768 3149084
-0.2323657 -0.44284189 1.768 1772810
-0.22563049 -0.44410476 1.7679999 1640970
-0.28288001 -0.43105531 1.768 8154979
-0.2778286 -0.43105531 1.768 6235671
-0.26940951 -0.43105531 1.768 1708816
-0.2559391 -0.43105531 1.768 2888474
-0.2424686 -0.43442291 1.768 1904405
-0.23573335 -0.43442291 1.7679999 1445901
-0.22899809 -0.43779051 1.768 1903882
-0.28288001 -0.42600381 1.768 8286055
-0.27681834 -0.42566705 1.768 4923928
-0.26940951 -0.42768759 1.768 1381395
-0.2525714 -0.42768759 1.768 3480344
-0.2458362 -0.42600378 1.768 2694168
-0.23505978 -0.42634058 1.768 1970956
-0.27446097 -0.33507809 1.768 3812142
-0.2660419 -0.33451685 1.768 4270621
-0.2559391 -0.33563936 1.768 4073503
-0.2458362 -0.33507809 1.768 3877411
-0.2357333 -0.33002669 1.768 5190956
-0.54387045 -0.32497531 1.768 3085850
-0.53629339 -0.32413343 1.768 4135460
-0.52871621 -0.32665911 1.768 3218193
-0.23685586 -0.32553658 1.768 4731944
-0.54459208 -0.31607512 1.7679999 4864304
-0.53587246 -0.31655622 1.7679999 5259060
-0.52871621 -0.31487238 1.768 5982010
-0.23348825 -0.31655619 1.768 3813931
-0.1111314 -0.31318861 1.768 6376768
-0.1043962 -0.31453565 1.768 5523244
-0.094293334 -0.31487238 1.768 4731951
-0.56373942 -0.30577978 1.768 3153187
-0.55565715 -0.30645335 1.7679999 4930350
-0.54555428 -0.30645335 1.7679999 4274222
-0.53545147 -0.30603236 1.7679999 3614762
-0.52871621 -0.30813715 1.768 4140849
-0.5186134 -0.30308571 1.768 3874863
-0.47146669 -0.30645329 1.768 3807499
-0.1111314 -0.30813715 1.768 5196341
-0.10487729 -0.30741552 1.7679999 5064755
-0.094293334 -0.30645335 1.7679999 5458997
-0.085874289 -0.30476952 1.768 6377270
-0.07408762 -0.3039276 1.768 6508340
-0.063984767 -0.30476949 1.768 5982247
-0.05388191 -0.30813715 1.768 5455148
-0.043779053 -0.30645329 1.768 5718052
-0.033676188 -0.30533078 1.768 5979187
-0.025257144 -0.30308571 1.768 5914959
-0.56441301 -0.29567701 1.768 2496528
-0.55523622 -0.29592958 1.7679999 3155481
-0.54603535 -0.29731268 1.7679999 2432541
-0.536125 -0.29837108 1.768 1903125
-0.072403818 -0.29635051 1.768 5721398
-0.065668568 -0.29719242 1.768 5983032
-0.040411431 -0.29971811 1.768 5718022
-0.030308571 -0.29971811 1.768 5849387
-0.022731433 -0.29887623 1.768 5848365
-0.014817528 -0.29635051 1.768 5520697
-0.56576002 -0.28961521 1.768 1840659
-0.55565715 -0.2887733 1.768 2759698
-0.54892188 -0.28961521 1.768 3021074
-0.063984767 -0.28624761 1.7679999 3680818
-0.057249531 -0.28288001 1.768 4136494
-0.040411431 -0.28961521 1.768 6314044
-0.0168381 -0.28961521 1.768 5129265
-0.0050514289 -0.28288001 1.768 6506041
0.0067352392 -0.28288001 1.768 5650220
0.013470481 -0.28288001 1.768 5715769
0.02188953 -0.28288001 1.768 5849160
-0.063984759 -0.27951241 1.768 3480087
-0.053881913 -0.27867049 1.768 3741221
-0.043105524 -0.27816537 1.768 3156261
-0.033002667 -0.27412421 1.768 4397612
-0.025257144 -0.27446097 1.768 4865079
-0.011449908 -0.27547124 1.768 6706242
-0.0050514289 -0.27614477 1.768 6968392
0.0033676194 -0.27614474 1.7679999 6704696
0.013470479 -0.27782857 1.768 6113075
0.022731433 -0.27867049 1.768 5980976
-0.56407619 -0.2626743 1.768 4271399
-0.55649906 -0.26351619 1.768 4336411
-0.54892188 -0.2626743 1.768 4992284
-0.53641361 -0.26652297 1.7679999 3679262
-0.52871621 -0.26940951 1.768 8011555
-0.03199238 -0.26940951 1.768 3802142
-0.025257144 -0.26940951 1.768 2099488
-0.011786669 -0.26772571 1.768 5124919
-0.0047146669 -0.26671544 1.768 4865087
0.0033676194 -0.26604187 1.7679999 6114104
0.010944765 -0.26520002 1.768 6575172
-0.57249528 -0.25593904 1.768 5783609
-0.56576002 -0.25593907 1.7679999 4863281
-0.55565715 -0.25593907 1.7679999 4798503
-0.54555428 -0.25551811 1.7679999 5060655
-0.53641361 -0.25545797 1.7679999 4798521
-0.52422601 -0.25818416 1.768 4140337
0.0050514289 -0.2593067 1.768 6436141
0.011786669 -0.2593067 1.768 5522488
-0.56576002 -0.2458362 1.7679999 4272173
-0.55565715 -0.2458362 1.7679999 4075304
-0.54513329 -0.24625716 1.7679999 4271914
-0.53641361 -0.24631728 1.7679999 4205620
-0.56407619 -0.23910099 1.768 3939879
-0.55734098 -0.23910099 1.768 3219744
-0.53713524 -0.23910099 1.768 3939116
-0.28601241 -0.45355809 1.777 7099441
-0.22000951 -0.45017329 1.777 1378586
-0.21493241 -0.45186567 1.777 1049883
-0.28657654 -0.44566035 1.777 7758148
-0.22204037 -0.44204992 1.7770001 1969161
-0.2149324 -0.44340384 1.7770001 1376783
-0.2098552 -0.44340384 1.777 4668710
-0.2301638 -0.43494189 1.777 1641481
-0.22565083 -0.43550602 1.777 1838344
-0.2098552 -0.4366343 1.777 5657146
-0.27416575 -0.42422351 1.777 1837322
-0.26401141 -0.42648005 1.7770001 2432019
-0.25611368 -0.42760825 1.777 3481884
-0.24285668 -0.42394143 1.777 2628897
-0.23219466 -0.42512614 1.7770001 2233356
-0.22474822 -0.42512614 1.7770001 1905421
-0.27551961 -0.41700262 1.7770001 2097926
-0.26231906 -0.41294089 1.777 2495506
-0.24273582 -0.41680926 1.7770002 2955031
-0.23354858 -0.41632572 1.7770001 2364689
-0.22452258 -0.4151974 1.7770001 1643021
-0.27416569 -0.40617141 1.777 263174
-0.25160065 -0.40504315 1.777 2627600
-0.24539524 -0.40617144 1.777 2561552
-0.2335486 -0.40955621 1.777 2101515
-0.2267791 -0.40955621 1.777 1838857
-0.2504724 -0.3994019 1.777 2562071
-0.42478764 -0.35201529 1.777 4203563
-0.4180181 -0.35201529 1.777 4204319
-0.50094467 -0.34186089 1.777 3087383
-0.49417531 -0.34186089 1.777 2888463
-0.45017329 -0.3435533 1.777 4266272
-0.44340384 -0.3435533 1.7770001 3415838
-0.43528038 -0.34456873 1.7770001 3876385
-0.42648005 -0.34750223 1.777 3744033
-0.4180181 -0.34863049 1.777 4138262
-0.27416569 -0.3435533 1.777 3548698
-0.26175496 -0.34298918 1.777 3680541
-0.25301099 -0.3427071 1.777 3680536
-0.24539524 -0.34186089 1.777 3745818
-0.52396119 -0.33306059 1.7770001 2757645
-0.51516074 -0.33306059 1.7770001 3872017
-0.49079049 -0.3317067 1.777 6702641
-0.48402092 -0.33255288 1.777 5455147
-0.47471285 -0.33255288 1.777 5716786
-0.46709719 -0.3317067 1.777 5850162
-0.45130154 -0.33734795 1.777 5260076
-0.44340384 -0.33763003 1.777 5587240
-0.4366343 -0.33847621 1.777 5060647
-0.38247809 -0.33847621 1.777 4471337
-0.28296611 -0.33576837 1.7770001 2625826
-0.27416575 -0.33847621 1.777 3745828
-0.26739621 -0.33847621 1.777 4073758
-0.2572419 -0.33847621 1.777 4008221
-0.24144638 -0.33734795 1.777 4140326
-0.2335486 -0.33283493 1.777 4992808
-0.2267791 -0.3317067 1.777 2170137
-0.55256236 -0.32409099 1.777 3806492
-0.53140771 -0.32324481 1.777 5193504
-0.52463812 -0.32493716 1.7770002 4798501
-0.51448375 -0.32493713 1.7770002 5585713
-0.50320125 -0.32380894 1.7770001 5194800
-0.49375215 -0.32451406 1.7770002 5195320
-0.48359784 -0.32451409 1.7770002 4997420
-0.47386667 -0.32493716 1.7770002 4930097
-0.46484065 -0.32606542 1.777 4405559
-0.23219466 -0.32561412 1.7770001 4337445
-0.2267791 -0.3283219 1.777 2430745
-0.1218514 -0.3215524 1.777 5783602
-0.11508189 -0.32493719 1.7770002 4665899
-0.10492762 -0.32324478 1.7770001 4927520
-0.09477333 -0.32324481 1.7770001 5061677
-0.084619045 -0.32324478 1.7770001 5849391
-0.076157153 -0.32324481 1.777 5389620
-0.57371724 -0.31647524 1.777 2822420
-0.5657388 -0.31574991 1.7770002 3414809
-0.55577791 -0.31681371 1.7770001 5127720
-0.52463806 -0.31478283 1.7770002 4800050
-0.51448375 -0.31478286 1.7770002 4469289
-0.5043295 -0.31478283 1.7770002 3875616
-0.49417529 -0.31647524 1.7770001 3481897
-0.48402098 -0.31478283 1.7770002 2692383
-0.47386667 -0.31478283 1.7770002 2690330
-0.46625099 -0.31393665 1.777 2692124
-0.12269759 -0.31562904 1.777 5915706
-0.11604898 -0.31526637 1.7770002 5917245
-0.1049276 -0.3181676 1.777 5586982
-0.084619045 -0.31478283 1.7770002 5521196
-0.075431839 -0.31429932 1.7770002 5258286
-0.064794019 -0.3138158 1.7770002 5193519
-0.053479236 -0.31342897 1.7770001 6046266
-0.047386661 -0.31139809 1.777 5980736
-0.56187052 -0.30124381 1.777 3418143
-0.53140771 -0.3029362 1.777 2820133
-0.52506119 -0.30462855 1.7770002 3874862
-0.51448375 -0.30632097 1.7770001 4595227
-0.50771427 -0.30632097 1.777 4658193
-0.48232856 -0.30632097 1.777 4402977
-0.47471285 -0.30547479 1.777 5061152
-0.46438938 -0.3059825 1.7770001 4798766
-0.1218514 -0.30801329 1.777 4011308
-0.11440494 -0.30530554 1.7770001 4010281
-0.10425067 -0.30259773 1.7770001 3617070
-0.09477333 -0.30124381 1.777 4340782
-0.083265148 -0.30327466 1.7770001 5655867
-0.075593017 -0.30575681 1.777 6048822
-0.56863999 -0.29278189 1.777 1971976
-0.54494661 -0.29278192 1.7770001 2167307
-0.53535652 -0.29334605 1.7770001 2689291
-0.52463812 -0.2978591 1.777 6048574
-0.1083124 -0.2978591 1.777 2170911
-0.093080953 -0.2978591 1.777 3549733
-0.084619045 -0.2978591 1.777 3948341
-0.074464768 -0.29334605 1.777 4601395
-0.011846671 -0.29278189 1.777 5652518
-0.003384762 -0.2910895 1.777 6242617
-0.57371724 -0.28601241 1.777 3418404
-0.56525528 -0.28432003 1.7770002 2497046
-0.55467784 -0.28389692 1.7770002 2956313
-0.54494661 -0.28474313 1.7770002 2364173
-0.53648472 -0.28432003 1.7770001 3017997
-0.072433904 -0.28499699 1.7770001 3610407
-0.01184667 -0.28601241 1.777 6442551
-0.0050771432 -0.2877048 1.777 6308405
0.001692381 -0.28601241 1.777 5782584
-0.57202482 -0.27247334 1.777 3088147
-0.56525528 -0.27416575 1.7770002 3152911
-0.55510098 -0.27416572 1.7770002 3087632
-0.54536974 -0.27458882 1.7770002 2562312
-0.53546935 -0.27551961 1.7770001 3874588
-0.04230953 -0.27416569 1.777 4262926
-0.58217913 -0.2606267 1.777 6968644
-0.57540953 -0.26536533 1.7770001 5259064
-0.56694758 -0.26739621 1.777 3810848
-0.55510092 -0.26739621 1.777 3680790
-0.54697752 -0.2646884 1.7770001 4337180
-0.58217913 -0.25554955 1.777 6640198
-0.57794809 -0.25301096 1.777 6246204
-0.53140771 -0.25554955 1.777 8153663
-0.52689463 -0.25385717 1.777 4009782
-0.57540959 -0.24370286 1.7770001 5455923
-0.55284446 -0.24144638 1.777 3744035
-0.54663903 -0.2403181 1.777 3087911
-0.53479242 -0.24370287 1.777 5590573
-0.57202482 -0.235241 1.777 5455664
-0.5657388 -0.2345157 1.7770002 4007709
-0.55510098 -0.2369334 1.777 2955035
-0.54494667 -0.2369334 1.777 2693412
-0.53648472 -0.2369334 1.777 5387577
-0.26875049 -0.43204191 1.786 2168848
-0.22248456 -0.43476343 1.786 2297607
-0.21602094 -0.43544379 1.7860001 3151124
-0.27215239 -0.42353714 1.786 1445137
-0.26466823 -0.42387733 1.786 2563093
-0.2551429 -0.42353714 1.7860001 3284766
-0.23473141 -0.4218362 1.786 2496018
-0.22282475 -0.42523807 1.786 1708812
-0.21602094 -0.4252381 1.7860001 4336155
-0.27300289 -0.41418192 1.786 1116167
-0.26583457 -0.41503242 1.7860001 2232848
-0.25514287 -0.41503245 1.7860001 3218199
-0.24663813 -0.41418192 1.786 3216915
-0.23473139 -0.41503239 1.7859999 2298895
-0.22225778 -0.41389844 1.7859999 920839
-0.21602094 -0.41673332 1.786 4334106
-0.27487391 -0.40482673 1.786 1116425
-0.26534858 -0.4048267 1.7860001 1576719
-0.25718406 -0.40414634 1.786 2430480
-0.24380319 -0.40369272 1.7860001 2299146
-0.23473144 -0.4048267 1.7860001 1773064
-0.22622664 -0.40482673 1.7860001 1314053
-0.25344193 -0.39802289 1.786 2626843
-0.2483391 -0.39802289 1.786 2627604
-0.23246348 -0.39575496 1.7859999 1577480
-0.22679365 -0.39575496 1.7859999 1248269
-0.39632195 -0.3606019 1.786 3944231
-0.38441524 -0.36230287 1.7860001 4073504
-0.37420955 -0.36230287 1.7860001 4073764
-0.49327621 -0.35039619 1.786 4938310
-0.48647237 -0.35039619 1.7859999 4145716
-0.47966859 -0.35039619 1.786 3880748
-0.4524534 -0.35039619 1.786 3611918
-0.44564953 -0.35039619 1.7859999 2957084
-0.43374285 -0.35039619 1.786 3611684
-0.41333142 -0.35379812 1.7860001 3614739
-0.40531269 -0.35282612 1.7860001 3680271
-0.39504623 -0.35337287 1.7860001 3286298
-0.38441527 -0.35379806 1.7860001 3744284
-0.3746348 -0.35422334 1.7860001 3679262
-0.35379809 -0.3572 1.786 4401165
-0.31297529 -0.35209715 1.786 4734261
-0.30957341 -0.35209715 1.786 4734253
-0.28235811 -0.35209715 1.786 3022099
-0.27623469 -0.35175696 1.786 3350029
-0.26466823 -0.35175696 1.786 3549207
-0.2551429 -0.35209715 1.7860001 3287056
-0.24493717 -0.35209715 1.7860001 3418388
-0.52219248 -0.3401905 1.786 2821673
-0.51283711 -0.341041 1.786 2955557
-0.50433242 -0.341041 1.786 2759192
-0.49531737 -0.34359241 1.786 3021087
-0.4864724 -0.34359244 1.7860001 3019543
-0.47740066 -0.34302545 1.7860001 3676704
-0.46265909 -0.3401905 1.786 5255715
-0.45755625 -0.34359241 1.786 4070690
-0.43374285 -0.3401905 1.786 5060650
-0.42475209 -0.34359238 1.7860001 4403751
-0.41503245 -0.34359244 1.7860001 4928801
-0.40482673 -0.34359244 1.7860001 4733734
-0.39462101 -0.34359244 1.7860001 4538416
-0.38441527 -0.34401762 1.7860001 4734502
-0.37488994 -0.34155127 1.786 4797998
-0.36740571 -0.34189147 1.786 4797228
-0.32658291 -0.34699431 1.786 4404779
-0.31297529 -0.34359241 1.7859999 3747624
-0.30957341 -0.34359241 1.7859999 3616039
-0.28462604 -0.34359241 1.7859999 2367001
-0.2755543 -0.34529334 1.786 3089690
-0.26761654 -0.34586033 1.7859999 3156510
-0.25684386 -0.34699431 1.786 3614486
-0.24408667 -0.34614381 1.786 3746330
-0.23586543 -0.34245846 1.7860001 4271908
-0.15308569 -0.34359241 1.786 4797732
-0.14741588 -0.34302545 1.7860001 4798509
-0.13539581 -0.34155124 1.786 5388344
-0.1292724 -0.3401905 1.786 5584187
-0.51141971 -0.33565465 1.7859999 3938076
-0.50348204 -0.33508766 1.7860001 4072731
-0.49554417 -0.33565465 1.7859999 4859692
-0.4864724 -0.33678859 1.786 4858664
-0.47456574 -0.33678859 1.786 5518635
-0.46538061 -0.33542782 1.786 5324594
-0.45653567 -0.33474746 1.786 4997679
-0.44564956 -0.33474746 1.786 4865580
-0.43612418 -0.33474746 1.786 4601646
-0.42455775 -0.33474746 1.786 4864047
-0.41503239 -0.33508766 1.7860001 4469546
-0.40482673 -0.33508763 1.7860001 3944745
-0.39547148 -0.3359381 1.786 3681582
-0.38441527 -0.33678856 1.7859999 3746855
-0.28916189 -0.33678859 1.786 1575963
-0.23303045 -0.33678859 1.786 4730660
-0.22622666 -0.33508766 1.786 2431765
-0.15478665 -0.33508763 1.786 5125920
-0.14696229 -0.33474743 1.786 4927532
-0.13777715 -0.33508763 1.786 4337713
-0.1224686 -0.33338669 1.786 4732721
-0.1156648 -0.33423716 1.786 5389105
-0.1054591 -0.33338669 1.7859999 5717798
-0.098655239 -0.33338669 1.786 6505509
-0.51028568 -0.32828385 1.786 5586226
-0.50348198 -0.32998481 1.786 4997174
-0.4898743 -0.32998481 1.786 5719345
-0.46549401 -0.32601592 1.7860001 3945777
-0.45585531 -0.32658291 1.7860001 3551528
-0.44564953 -0.32828385 1.7860001 3812901
-0.43714473 -0.32828385 1.786 3481890
-0.42426613 -0.32706887 1.7860001 3086869
-0.41503242 -0.32658291 1.7860001 2822680
-0.40482673 -0.32828385 1.7860001 2428955
-0.39802289 -0.32998481 1.786 1709344
-0.28916189 -0.323181 1.786 1576981
-0.2313295 -0.323181 1.786 3350556
-0.22520609 -0.3272633 1.786 2167312
-0.15478665 -0.32828385 1.786 5391681
-0.14628188 -0.32794365 1.786 5980983
-0.1360762 -0.32658291 1.7860001 5586487
-0.12629575 -0.32700813 1.7860001 5387049
-0.10545909 -0.32998481 1.7859999 5191725
-0.095253341 -0.32998481 1.7859999 5522483
-0.08844953 -0.32998481 1.786 5588514
-0.071439996 -0.32488197 1.786 5585726
-0.068038099 -0.32488197 1.786 6508617
-0.50007999 -0.31297529 1.786 985881
-0.49497718 -0.31297529 1.786 1902874
-0.46401986 -0.31705758 1.786 2822423
-0.45721602 -0.31773797 1.786 2560017
-0.42183623 -0.31637719 1.7859999 3084819
-0.41503242 -0.31637722 1.7860001 3609882
-0.2313295 -0.31807816 1.786 2760214
-0.13522573 -0.3189286 1.786 5456701
-0.12791164 -0.31569681 1.786 5390407
-0.071439996 -0.31807816 1.786 5652277
-0.062935241 -0.3197791 1.786 5587779
-0.057832379 -0.3197791 1.786 5918028
-0.50416237 -0.30821261 1.786 4266772
-0.49497718 -0.30787241 1.786 4662811
-0.4898743 -0.30787241 1.786 4532500
-0.47286481 -0.30957341 1.786 3415322
-0.46265909 -0.30957341 1.786 4665386
-0.42353714 -0.30957341 1.786 4601899
-0.41163051 -0.30957341 1.786 5125678
-0.40822861 -0.30957341 1.786 4928556
-0.1258705 -0.30617142 1.7860001 2628898
-0.11793274 -0.30390346 1.7859999 3349790
-0.53296506 -0.29709974 1.7859999 3350061
-0.1224686 -0.2976667 1.786 3218198
-0.11702557 -0.29732651 1.786 3022362
-0.10545909 -0.29596573 1.7860001 2628371
-0.095253341 -0.29539874 1.7860001 3351066
-0.085047625 -0.29426479 1.7860001 3090728
-0.078243807 -0.29426479 1.786 4338990
-0.0056698415 -0.29483178 1.7859999 6110002
0 -0.29596579 1.786 6569802
-0.57662284 -0.28235811 1.786 3416884
-0.54770672 -0.28235811 1.786 1906958
-0.10716005 -0.28916189 1.786 4595743
-0.093212202 -0.28507963 1.786 4862498
-0.08844953 -0.28916189 1.786 3416592
-0.077393331 -0.28490952 1.786 4398628
0.0068038101 -0.28916189 1.786 5782064
0.01020571 -0.28916189 1.786 5648952
-0.58172578 -0.2755543 1.7859999 6641464
-0.57747334 -0.27640477 1.786 4203551
-0.58399373 -0.26648256 1.7859999 7099974
-0.57832378 -0.26534861 1.786 5521465
-0.58767915 -0.25429243 1.786 6771018
-0.53409898 -0.25174099 1.786 7956542
-0.52729529 -0.25344193 1.786 2434356
-0.58342671 -0.24408667 1.786 6509119
-0.53239816 -0.24493717 1.7860001 6178096
-0.58376694 -0.23541184 1.786 6377542
-0.55451053 -0.23473139 1.7859999 3153685
-0.54430479 -0.23473139 1.7859999 4336177
-0.22223809 -0.41028571 1.795 198660
-0.21710955 -0.41199526 1.795 4007708
-0.28036189 -0.4034476 1.795 3279631
-0.27352381 -0.40088335 1.795 985350
-0.2649762 -0.40002859 1.795 1903889
-0.25984761 -0.40002859 1.795 2429458
-0.24446189 -0.40002859 1.795 2692104
-0.23762381 -0.40002859 1.795 1970950
-0.22309285 -0.40259287 1.795 722696
-0.21710955 -0.40344763 1.795 3945500
-0.26554605 -0.39433017 1.795 1904913
-0.25642857 -0.39489999 1.795 2626834
-0.24617143 -0.39489999 1.795 2692108
-0.23676902 -0.39404526 1.795 1512456
-0.22907621 -0.3931905 1.795 1183757
-0.25471905 -0.3897714 1.795 2693393
-0.24617143 -0.38806191 1.795 2167565
-0.23591429 -0.38635239 1.7949998 1184006
-0.22702479 -0.38771996 1.7949998 920839
-0.27694279 -0.37267619 1.795 2296838
-0.2484508 -0.37381589 1.795 1970707
-0.23542583 -0.37609527 1.795 1379593
-0.22793655 -0.37495556 1.795 1772299
-0.3931905 -0.36241901 1.795 4205093
-0.36652192 -0.36378664 1.7949998 4007966
-0.28121668 -0.36583811 1.795 3215892
-0.27420759 -0.3651543 1.7949998 2954512
-0.26583093 -0.36498335 1.795 2692369
-0.25642854 -0.36378664 1.7949998 2758925
-0.24714829 -0.36534962 1.795 2298380
-0.23591429 -0.36583817 1.7949998 1970184
-0.22565717 -0.36583811 1.7949998 2889232
-0.46157151 -0.35216191 1.795 2628880
-0.45815241 -0.35216191 1.795 3087627
-0.40515715 -0.359 1.795 3877139
-0.3931905 -0.359 1.795 3877668
-0.37267619 -0.35216191 1.795 4533536
-0.36697781 -0.35615078 1.795 4401951
-0.35558099 -0.35387146 1.795 4862748
-0.3316476 -0.35387146 1.795 4600357
-0.32438219 -0.35515359 1.795 5059361
-0.31540713 -0.35643572 1.795 4470057
-0.30472264 -0.35515359 1.795 5060389
-0.29403815 -0.35558099 1.7949998 5388588
-0.28514856 -0.35694855 1.7949998 3613720
-0.27283999 -0.3576324 1.7949998 3744277
-0.2649762 -0.359 1.795 3351827
-0.25642857 -0.359 1.795 3090191
-0.24617143 -0.359 1.795 3024145
-0.23591429 -0.35558096 1.7949998 3416604
-0.22663403 -0.35509253 1.795 3745568
-0.15214759 -0.35216191 1.795 4667944
-0.51627618 -0.3453238 1.795 3750458
-0.47439286 -0.34446904 1.795 4463632
-0.46567431 -0.34600765 1.7949998 3873557
-0.43250954 -0.3453238 1.795 4338981
-0.42738101 -0.3453238 1.795 4143143
-0.3752405 -0.34788811 1.795 5060392
-0.36697781 -0.3453238 1.795 4994350
-0.35558099 -0.3453238 1.795 4601128
-0.34532383 -0.34190479 1.795 3617309
-0.33335713 -0.34532383 1.795 3748389
-0.32438219 -0.34489647 1.795 3812902
-0.31797141 -0.34532383 1.795 3812901
-0.30472264 -0.34489644 1.795 3616803
-0.29403815 -0.34475398 1.795 3419933
-0.2872 -0.34703335 1.795 2631453
-0.2336349 -0.3476032 1.795 3812128
-0.22565717 -0.34532386 1.7949998 3549728
-0.19317621 -0.34532383 1.795 5323815
-0.18462856 -0.34532386 1.7949998 5452846
-0.17437142 -0.34361431 1.795 4731172
-0.16411424 -0.34483543 1.795 4272164
-0.15642142 -0.34532383 1.795 4404512
-0.14530955 -0.3453238 1.795 4930607
-0.12479524 -0.34190479 1.795 5848126
-0.10428095 -0.34190479 1.795 3744019
-0.43307939 -0.33620632 1.795 4667177
-0.39490002 -0.33335716 1.795 2694433
-0.38635239 -0.33335713 1.795 2628633
-0.37609529 -0.33763096 1.795 3417382
-0.36925721 -0.33848569 1.795 3417895
-0.33335716 -0.33848569 1.795 2759200
-0.32480958 -0.33848569 1.795 2956062
-0.31455237 -0.33848569 1.795 2758686
-0.30429524 -0.33848569 1.795 2233631
-0.29574764 -0.33848569 1.795 2367511
-0.22337778 -0.33734605 1.795 2234387
-0.21676764 -0.33369905 1.7949998 1840404
-0.1928343 -0.33575049 1.7949998 4272688
-0.18462856 -0.33506668 1.7949998 4731963
-0.17437144 -0.33506668 1.7949998 5652281
-0.16411427 -0.33506668 1.7949998 5194806
-0.14530955 -0.33506665 1.795 5257260
-0.13334291 -0.3367762 1.795 5123630
-0.12718858 -0.33711809 1.7949998 4797230
-0.11624765 -0.33848569 1.795 5586738
-0.10599047 -0.33848569 1.795 4864031
-0.095049538 -0.33711809 1.7949998 4793624
-0.085476197 -0.33506665 1.795 5189412
-0.078638099 -0.3316476 1.795 5717044
-0.4513143 -0.32310006 1.795 2954780
-0.44447613 -0.32310006 1.795 2167319
-0.4337306 -0.32480955 1.795 2755861
-0.42738101 -0.32139051 1.795 1116686
-0.41028571 -0.32310006 1.795 2821140
-0.4029592 -0.32383272 1.795 2165778
-0.39489999 -0.32822859 1.795 1577235
-0.3853755 -0.32529801 1.795 2035725
-0.22565717 -0.32480958 1.795 1707531
-0.2188191 -0.32822859 1.795 1182214
-0.1914667 -0.32822859 1.795 3023142
-0.17368762 -0.32686099 1.7949998 4140332
-0.16411427 -0.32480961 1.7949998 4076587
-0.15385713 -0.32310006 1.795 4340528
-0.14530955 -0.32310006 1.795 5391425
-0.063252389 -0.32480961 1.795 7035736
-0.45473337 -0.31626192 1.795 3479312
-0.44362137 -0.31711665 1.795 3217931
-0.43079999 -0.31626189 1.795 3677209
-0.42738101 -0.31626189 1.795 3283480
-0.41028571 -0.31626189 1.795 3939610
-0.40458736 -0.31455234 1.795 4006940
-0.39660949 -0.3111333 1.795 4141345
-0.15271743 -0.31683174 1.795 3154212
-0.1431116 -0.31552926 1.795 3024168
-0.1353943 -0.31386855 1.7949998 3025453
-0.50260001 -0.30771431 1.795 5652778
-0.15214759 -0.3008762 1.795 3412754
-0.14246035 -0.30315554 1.795 2693140
-0.13505241 -0.30429524 1.795 2169108
-0.12878413 -0.30201587 1.795 2889239
-0.15214759 -0.29745719 1.795 4263443
-0.14360003 -0.29745719 1.795 3806229
-0.1367619 -0.29745719 1.795 3808529
-0.1282143 -0.29745719 1.795 3546134
-0.1145381 -0.29574764 1.795 2825243
-0.1025714 -0.2923286 1.795 4006407
-0.098012693 -0.29175878 1.795 4007701
-0.083766669 -0.29061911 1.795 3154462
0.0034190475 -0.29403809 1.795 6176834
-0.08547619 -0.28549048 1.795 4269079
-0.59149522 -0.26326671 1.795 7165262
-0.52995241 -0.2461714 1.795 2698543
-0.53508091 -0.2393333 1.795 5128233
-0.28176761 -0.40203431 1.804 3346453
-0.27489525 -0.39516196 1.804 1640967
-0.26458669 -0.39344379 1.804 2233104
-0.2244978 -0.39630735 1.804 591888
-0.27317712 -0.38399434 1.804 1051914
-0.26458672 -0.38485339 1.804 1904659
-0.2547076 -0.38442391 1.804 2429460
-0.2456876 -0.38313532 1.804 2494477
-0.22541411 -0.38554063 1.8040001 1706758
-0.3401829 -0.37110859 1.804 4664092
-0.28348571 -0.3745448 1.804 2823695
-0.27374983 -0.37454477 1.804 1773062
-0.26415718 -0.37497431 1.804 1904911
-0.2559962 -0.37454477 1.804 2429209
-0.24396949 -0.37591925 1.8040001 1969676
-0.233661 -0.37798101 1.804 1379337
-0.2233524 -0.3745448 1.804 2493713
-0.21819809 -0.3728267 1.804 3219480
-0.36217448 -0.36423621 1.8040001 4074266
-0.35343674 -0.36472708 1.804 4335136
-0.34361908 -0.3637453 1.804 4269599
-0.3356013 -0.36194539 1.804 4136738
-0.32643813 -0.36423621 1.804 3939358
-0.31612954 -0.36423621 1.8040001 3481888
-0.30582103 -0.3653816 1.804 3875356
-0.29551238 -0.36629793 1.8040001 3873306
-0.2874946 -0.3653816 1.804 3675158
-0.27489531 -0.36595431 1.804 3020559
-0.26458669 -0.36767241 1.804 2561296
-0.2577143 -0.36767241 1.804 2561549
-0.2439695 -0.36767241 1.804 2298632
-0.2233524 -0.3608 1.804 3942431
-0.21648 -0.36423621 1.804 3877151
-0.18383619 -0.3608 1.804 5125161
-0.47075811 -0.35220951 1.804 3742999
-0.4673219 -0.35392761 1.804 3153685
-0.3637453 -0.3529458 1.804 5060135
-0.35294583 -0.35343671 1.804 5125153
-0.34361902 -0.35392755 1.804 4600608
-0.33674669 -0.35564572 1.804 4534819
-0.30238479 -0.3504914 1.804 4602662
-0.29723048 -0.3504914 1.804 4667693
-0.2233524 -0.35736379 1.804 4270369
-0.21648 -0.35392761 1.804 4599846
-0.20617139 -0.35220948 1.804 5322276
-0.19586289 -0.35450029 1.804 4664864
-0.18555431 -0.35564569 1.804 4861985
-0.1752457 -0.35220948 1.804 3878691
-0.16493715 -0.35450029 1.804 4995368
-0.1580648 -0.35564572 1.804 4602141
-0.36217448 -0.34430629 1.8040001 3945006
-0.35392761 -0.34312814 1.804 3879197
-0.3431282 -0.34361908 1.804 3419423
-0.305821 -0.3401829 1.804 1903135
-0.21605048 -0.34404856 1.804 3616297
-0.20617139 -0.34361902 1.804 4799548
-0.1992991 -0.34361908 1.804 5061940
-0.1649372 -0.34705529 1.804 4337958
-0.38141721 -0.33674669 1.804 3022367
-0.37385756 -0.33468497 1.8040001 2169371
-0.3504914 -0.33674669 1.804 2429204
-0.34361911 -0.33674669 1.804 2232852
-0.33502859 -0.33674669 1.804 2362643
-0.32729718 -0.33588764 1.804 2494228
-0.31612957 -0.33674669 1.804 2165523
-0.29322159 -0.3356013 1.804 787730
-0.2147619 -0.33674669 1.804 2171165
-0.20617139 -0.33502856 1.804 2892327
-0.19815369 -0.33445588 1.804 3417385
-0.43639621 -0.32300201 1.804 3214357
-0.3951619 -0.32472005 1.804 2362632
-0.38141719 -0.32643816 1.804 2494735
-0.37454477 -0.32643816 1.804 2035983
-0.2937943 -0.3281562 1.804 1968655
-0.22507051 -0.32472005 1.804 985095
-0.21579275 -0.32781258 1.8040001 1116169
-0.20685863 -0.32849982 1.8040001 1707027
-0.1935721 -0.32643816 1.804 2560797
-0.18469524 -0.32901525 1.804 3219750
-0.1752457 -0.32414737 1.804 3022365
-0.45014101 -0.3161296 1.804 4137497
-0.4467048 -0.3161296 1.804 4072724
-0.43737796 -0.31563869 1.804 4336159
-0.40375239 -0.31784767 1.804 3612439
-0.3951619 -0.3178477 1.804 3415826
-0.3865715 -0.31784767 1.804 3481102
-0.37368572 -0.31698862 1.804 3220497
-0.3608 -0.31269339 1.804 4074776
-0.35736379 -0.31269339 1.804 4139286
-0.2302248 -0.31956571 1.804 1839887
-0.1735276 -0.31956571 1.804 2626068
-0.16424993 -0.31819126 1.8040001 2299678
-0.1546286 -0.31544232 1.8040001 2562324
-0.1460381 -0.31269339 1.804 1907219
-0.16321909 -0.30238479 1.804 2886931
-0.15531583 -0.305821 1.8040001 2888720
-0.1466108 -0.30811182 1.804 1513747
-0.1340114 -0.29894859 1.804 3743251
-0.53260958 -0.25084189 1.804 2696754
-0.28332949 -0.40080759 1.814 3347987
-0.28332949 -0.39389718 1.814 2561553
-0.27814668 -0.39044189 1.814 985862
-0.29369524 -0.3800762 1.814 4336415
-0.28505713 -0.38353148 1.814 2430994
-0.27728289 -0.3843953 1.814 723461
-0.22574222 -0.38122797 1.814 2099978
-0.33515814 -0.3748934 1.814 4073249
-0.32133719 -0.37316579 1.814 3614241
-0.3137356 -0.37454787 1.8139999 3548951
-0.30406097 -0.37454787 1.8139999 3416857
-0.29369524 -0.37489343 1.814 3874840
-0.2142248 -0.37316579 1.814 4141348
-0.17448956 -0.37316579 1.814 1970961
-0.3558895 -0.36625531 1.814 4073245
-0.3455238 -0.36798292 1.814 4202779
-0.33446708 -0.36832842 1.8139999 3939871
-0.3230648 -0.36971051 1.814 3415841
-0.31788191 -0.36971051 1.814 3482400
-0.304061 -0.36625531 1.814 3875615
-0.29715049 -0.36625531 1.814 4004380
-0.21076949 -0.36625528 1.814 4403496
-0.20443495 -0.36510351 1.814 4469033
-0.19262955 -0.36366382 1.814 5255216
-0.18485525 -0.36625531 1.814 5322525
-0.17572355 -0.36625525 1.814 4268317
-0.16792458 -0.36556423 1.8139999 3806742
-0.47682291 -0.3558895 1.814 3939363
-0.2107695 -0.35934481 1.814 4795167
-0.20385908 -0.35934481 1.814 3417632
-0.17621718 -0.35934481 1.814 5190951
-0.1658514 -0.35934481 1.814 5455911
-0.36798292 -0.34206861 1.814 3155498
-0.38353151 -0.33515811 1.814 2627351
-0.36625528 -0.33515814 1.814 1511954
-0.35632142 -0.33472621 1.814 1970448
-0.34552383 -0.33417091 1.814 1839118
-0.3358492 -0.33308497 1.8139999 2231051
-0.32548341 -0.33377603 1.8139999 2099978
-0.31442666 -0.33654022 1.8139999 1771787
-0.30362907 -0.33559003 1.814 1771279
-0.29715049 -0.3334305 1.814 1967880
-0.20040379 -0.33170289 1.814 2365211
-0.38180387 -0.32133719 1.814 3086347
-0.37662101 -0.32133719 1.814 2824971
-0.36625528 -0.32479241 1.814 2298633
-0.35588956 -0.32479239 1.814 2494731
-0.34552383 -0.32686552 1.8139999 2167309
-0.33515811 -0.32824761 1.814 2232594
-0.30175748 -0.32709587 1.814 2165777
-0.29715049 -0.3230648 1.814 1903633
-0.2245905 -0.32364067 1.814 657157
-0.21307303 -0.32364067 1.814 1378822
-0.20213145 -0.32824761 1.814 1903888
-0.19349337 -0.32548344 1.8139999 2494488
-0.18543112 -0.32594413 1.814 1838876
-0.17967241 -0.3230648 1.814 2035469
-0.36625528 -0.31788191 1.814 3414036
-0.3549023 -0.31492028 1.814 4005914
-0.34811527 -0.31356287 1.814 4006943
-0.3230648 -0.31097141 1.814 4532256
-0.31788191 -0.31097141 1.814 3548193
-0.17391367 -0.31557843 1.814 2363925
-0.16634504 -0.31343943 1.814 2495767
-0.1566375 -0.31212318 1.814 2364690
-0.34466004 -0.30665237 1.814 5061682
-0.33515814 -0.30578858 1.814 5323312
-0.1727619 -0.30751619 1.814 2955028
-0.16671525 -0.3066524 1.814 3085082
-0.34048 -0.3839086 1.824 3349003
-0.3344 -0.38304004 1.824 3283219
-0.32658291 -0.38217151 1.824 3415072
-0.31384382 -0.38332954 1.824 3743250
-0.3057372 -0.3839086 1.824 4268572
-0.29531431 -0.38477713 1.824 4335651
-0.22235429 -0.38217151 1.824 2887953
-0.34048 -0.37869719 1.824 4007211
-0.33353147 -0.3766126 1.824 4007201
-0.32542482 -0.37753907 1.824 3679783
-0.31963429 -0.37869719 1.824 3614741
-0.3057372 -0.37869719 1.824 3876888
-0.21366856 -0.37696004 1.824 4403749
-0.20498291 -0.3717486 1.824 5126195
-0.19629715 -0.3717486 1.824 5060131
-0.18413717 -0.37348571 1.824 3743247
-0.2015086 -0.3682743 1.824 4928039
-0.19629715 -0.3682743 1.824 5256492
-0.17718861 -0.36480001 1.824 4797738
-0.3300572 -0.3300572 1.824 2494736
-0.3242667 -0.33121529 1.824 1774347
-0.31615999 -0.33179429 1.824 1839115
-0.30921149 -0.33179432 1.824 1510669
-0.35090289 -0.32310861 1.824 2823439
-0.34395427 -0.32449833 1.824 2561807
-0.33353147 -0.32484576 1.824 2561552
-0.32542482 -0.32542482 1.824 2561808
-0.31442285 -0.32484576 1.824 1774351
-0.30643207 -0.32449833 1.824 1576722
-0.22409144 -0.32310861 1.824 657669
-0.21656381 -0.3242667 1.824 1247748
-0.20498292 -0.32484579 1.824 1707530
-0.19455999 -0.32310861 1.824 2626065
-0.1858743 -0.32310861 1.824 1969938
-0.34351999 -0.31659427 1.8240001 3677457
-0.33353141 -0.31615996 1.824 3809045
-0.32484576 -0.31789714 1.824 3480342
-0.31963429 -0.31615999 1.824 3219476
-0.3022629 -0.31789714 1.824 2167057
-0.29878861 -0.31963429 1.824 2494738
-0.23451425 -0.31789714 1.824 1445898
-0.22756575 -0.31963429 1.824 919558
-0.21471083 -0.31824455 1.824 1444869
-0.2084572 -0.31963429 1.824 1708038
-0.19513905 -0.31731811 1.824 2758669
-0.18413717 -0.31615999 1.824 2496534
-0.17603052 -0.31500188 1.824 2430744
-0.34048 -0.30921149 1.824 4995884
-0.3370057 -0.30921149 1.824 5126446
-0.21308951 -0.30342099 1.824 2820615
-0.19456001 -0.30921149 1.824 2234897
-0.18240005 -0.30747434 1.824 2823703
-0.1760305 -0.30689529 1.824 2954514
-0.2897886 -0.40151429 1.8329999 4074007
-0.31073719 -0.39104 1.8329999 3084055
-0.29328001 -0.39104 1.8329999 3679771
-0.2897886 -0.39453146 1.8329998 3416342
-0.32295716 -0.3840571 1.8329999 3547668
-0.31772 -0.3875486 1.8329999 2103823
-0.21646854 -0.3823114 1.8329999 4009501
-0.20599429 -0.37707433 1.8329998 5717546
-0.1920286 -0.3735829 1.8329999 5254937
-0.32208428 -0.32470286 1.8329999 2561555
-0.31422859 -0.3212114 1.8329998 2233617
-0.3072457 -0.3212114 1.8329999 2102546
-0.22345141 -0.3212114 1.8329999 920070
-0.20424861 -0.3212114 1.8329999 1905676
-0.31422859 -0.31772 1.8329998 2300178
-0.3072457 -0.31772 1.8329999 2102290
-0.23334379 -0.31364667 1.8330001 788999
-0.22519715 -0.31772 1.8329999 788743
-0.21696733 -0.31323102 1.8330001 1117448
-0.20599429 -0.31422856 1.8329999 1970956
-0.19482172 -0.3135303 1.8329999 2497039
-0.1885372 -0.31073719 1.8329999 2628372
-0.22345141 -0.3037543 1.8329999 3675415
-0.21879621 -0.30608189 1.8329998 2034699
-0.20599429 -0.3072457 1.8329998 1509641
-0.19552 -0.3072457 1.8329998 2035980
-0.1885372 -0.3072457 1.8329999 2560282
-0.29488 -0.40194952 1.8430001 3942428
-0.31594291 -0.39317331 1.8430001 1706256
-0.30541143 -0.39317331 1.8430001 3545380
-0.29663527 -0.39492857 1.8430001 3875871
-0.32471907 -0.38966289 1.8430001 2757903
-0.2246705 -0.38966289 1.8430001 2888207
-0.21413906 -0.38498223 1.8430001 4469536
-0.20536286 -0.38264191 1.8430001 5453602
-0.2000971 -0.37913141 1.8430001 4993826
-0.2352019 -0.31243241 1.8430001 723465
-0.22642575 -0.31418765 1.8430001 788488
-0.23344666 -0.30716667 1.8430001 1706769
-0.22701085 -0.30775174 1.8430001 1903891
-0.20536286 -0.3054114 1.8430001 3869445
-0.30000949 -0.40589523 1.853 4270882
-0.29471526 -0.40942481 1.853 4535066
-0.33177519 -0.3917771 1.853 2757395
-0.32295144 -0.39530671 1.853 921354
-0.31412759 -0.39883623 1.853 2756886
-0.30353904 -0.39883623 1.853 3743266
-0.22236 -0.3917771 1.853 3482646
-0.21530096 -0.39177713 1.853 4271649
-0.20824189 -0.3917771 1.853 5058854
-0.2117714 -0.38824761 1.853 4798500
-0.20647715 -0.38824761 1.853 5124644
-0.19588855 -0.3811886 1.853 4598554
-0.3034029 -0.41340858 1.863 4796714
-0.29808 -0.41518289 1.863 5256990
-0.32469428 -0.40098849 1.863 1708294
-0.30517721 -0.40631139 1.863 3811110
-0.3406629 -0.39389139 1.863 2691344
-0.33356571 -0.39566571 1.863 2495247
-0.2200114 -0.39743999 1.863 3875358
-0.20345144 -0.39270854 1.863 5058084
-0.19871999 -0.39034289 1.863 4530974
-0.2022686 -0.3867943 1.863 4992030
-0.1969457 -0.3867943 1.863 4400408
-0.3103829 -0.41206002 1.873 3942182
-0.3068153 -0.41741151 1.873 4927794
-0.3317886 -0.40314099 1.873 2496268
-0.31216669 -0.4067086 1.873 3284513
-0.2211924 -0.40314099 1.873 3676704
-0.2140571 -0.40314099 1.873 4402710
-0.33535621 -0.39957339 1.873 2102548
-0.2265438 -0.39957339 1.873 3217174
-0.21405713 -0.39957342 1.873 4599583
-0.20692191 -0.39957339 1.873 5059881
-0.19550553 -0.39457864 1.8729999 4269852
-0.18622972 -0.39386517 1.8729999 3613461
-0.17481333 -0.39243808 1.873 2891801
-0.19265141 -0.38887051 1.873 3875087
-0.18551619 -0.38887051 1.873 2956810
-0.17481333 -0.38797858 1.873 2627602
-0.31204 -0.42322671 1.883 5452596
-0.30845341 -0.42322671 1.883 5517628
-0.31562668 -0.41515669 1.883 3679269
-0.34073329 -0.40350005 1.883 1840148
-0.3371467 -0.40529341 1.883 2299413
-0.32459337 -0.40888 1.883 2494992
-0.3192133 -0.40888 1.883 2692633
-0.22775334 -0.40529341 1.883 2757146
-0.21520001 -0.40529341 1.883 4400669
-0.20354334 -0.40350005 1.883 4993321
-0.19368 -0.40314141 1.883 4927522
-0.1793333 -0.4017067 1.883 4139557
-0.18291999 -0.39811999 1.883 3745308
-0.17754 -0.39811999 1.883 3548447
-0.32288188 -0.43291429 1.8940001 6704962
-0.32324263 -0.42497754 1.8940001 4337450
-0.31656861 -0.42660096 1.8940001 5061935
-0.33478707 -0.41271162 1.8940001 2562061
-0.32540721 -0.41704074 1.8940001 3153945
-0.23088761 -0.41126859 1.8940001 1641237
-0.2236724 -0.41126859 1.8940001 3555383
-0.2146533 -0.41126859 1.8940001 4270898
-0.2092419 -0.41126859 1.8940001 4598826
-0.1948114 -0.41126859 1.8940001 5452582
-0.18398862 -0.41126859 1.8940001 5127462
-0.34633139 -0.4040533 1.8940001 1970706
-0.2056343 -0.40766099 1.8940001 4993580
-0.1948114 -0.40766099 1.8940001 5124385
-0.18471012 -0.4062179 1.8940001 4469029
-0.17557077 -0.40405333 1.8940001 3943203
-0.16955809 -0.4004457 1.8940001 2958873
-0.16667202 -0.39539504 1.8940001 2366481
-0.16775429 -0.3896229 1.8940001 1513997
-0.1461086 -0.38421142 1.8940001 1969427
-0.33410665 -0.43474668 1.9040002 5589817
-0.32277331 -0.4315733 1.904 5521969
-0.34090659 -0.42069331 1.904 2823446
-0.33410665 -0.42477334 1.9040002 3940896
-0.2321067 -0.42069331 1.904 3024907
-0.22848 -0.42069331 1.904 5459766
-0.18496001 -0.42069331 1.9039999 5587008
-0.34453329 -0.41525334 1.904 2494482
-0.2321067 -0.41706669 1.904 2300178
-0.22666666 -0.41706669 1.904 4806990
-0.2103467 -0.41706669 1.904 6314538
-0.20490664 -0.41343999 1.904 4992816
-0.19584 -0.41706669 1.9039999 5715240
-0.18496001 -0.41706669 1.9039999 5323812
-0.17480534 -0.41489068 1.904 5062182
-0.3517867 -0.4061867 1.904 2232076
-0.34816 -0.40981331 1.904 2166805
-0.17226665 -0.40799999 1.904 3878436
-0.16537602 -0.40546137 1.904 3352092
-0.16320001 -0.39349335 1.904 2364685
-0.15594664 -0.39530665 1.904 2101517
-0.14688 -0.39168 1.904 1051407
-0.15232 -0.38805339 1.904 1837827
-0.13237335 -0.38080001 1.904 7365722
-0.13237335 -0.3771733 1.904 7824475
-0.35017139 -0.43041909 1.915 3287579
-0.34469998 -0.43406668 1.915 4337702
-0.35138726 -0.42555556 1.915 2824466
-0.34530792 -0.42555556 1.915 3086615
-0.1860286 -0.4267714 1.915 7498331
-0.17508571 -0.42312381 1.915 5455675
-0.35290712 -0.41674048 1.915 2428944
-0.20609049 -0.41947621 1.915 6113331
-0.1714381 -0.41947621 1.915 4995869
-0.16487241 -0.41509908 1.915 4535326
-0.16049521 -0.40670955 1.915 3219739
-0.1559357 -0.40397385 1.915 3021078
-0.16049521 -0.39394292 1.915 2363916
-0.1559357 -0.39485481 1.915 2298121
-0.14590481 -0.39394289 1.915 2165773
-0.1386095 -0.3848238 1.915 5655356
-0.1386095 -0.37935239 1.915 7628368
-0.34649998 -0.4436667 1.925 5454386
-0.35383332 -0.43633336 1.925 3550496
-0.35841665 -0.42533332 1.925 2561041
-0.18333329 -0.42899999 1.925 7234647
-0.17783335 -0.42899999 1.925 6904917
-0.16622223 -0.4241111 1.9249998 5127721
-0.35933331 -0.41250002 1.925 2362121
-0.16133329 -0.41800001 1.925 4797988
-0.15583335 -0.41433334 1.925 4008479
-0.15216665 -0.40516669 1.925 2626839
-0.14666671 -0.3996667 1.925 1905426
-0.1381111 -0.39355552 1.9249998 2688523
-0.14300001 -0.38683334 1.925 4537135
-0.13383335 -0.38866669 1.925 6904374
-0.1265 -0.38683331 1.925 6706484
-0.36138669 -0.4425143 1.936 3615008
-0.35474896 -0.44693941 1.9360001 4600369
-0.34663621 -0.44988951 1.936 6177099
-0.37244949 -0.43145141 1.936 2297876
-0.36507434 -0.43513909 1.936 2694165
-0.14750481 -0.43145141 1.936 5716780
-0.36507431 -0.42407623 1.9360001 2297616
-0.1622552 -0.42592001 1.936 5258539
-0.15441905 -0.42453709 1.936 5257001
-0.36507431 -0.41485721 1.936 2493194
-0.1511924 -0.41485721 1.936 3613726
-0.1511924 -0.40932569 1.936 2822683
-0.145661 -0.4056381 1.936 2430229
-0.1438172 -0.39826289 1.936 2098958
-0.13459811 -0.39641905 1.936 2495505
-0.12906671 -0.39457521 1.936 4992029
-0.36344001 -0.45244569 1.947 4472361
-0.35602286 -0.45491806 1.947 5391680
-0.38321909 -0.44379243 1.947 1578010
-0.37456572 -0.44502857 1.9470003 2956827
-0.36591241 -0.44750103 1.947 3877154
-0.38198289 -0.43575719 1.947 2034198
-0.37679091 -0.43390289 1.9470001 2232340
-0.14339811 -0.43266669 1.9470001 5585966
-0.13721719 -0.43390289 1.947 5650481
-0.37209332 -0.42524955 1.947 1904909
-0.14463431 -0.42463148 1.9470001 4468520
-0.14516412 -0.4164196 1.9470003 3153181
-0.13721719 -0.4190686 1.947 3415583
-0.14278001 -0.40423429 1.947 2101519
-0.13536289 -0.40237999 1.947 1379855
-0.384141 -0.4512724 1.9579999 2364185
-0.37481713 -0.45500189 1.9579999 4467238
-0.36642572 -0.45779902 1.9579999 5061934
-0.39160001 -0.4400838 1.9579999 2952727
-0.38787049 -0.44194859 1.9579999 2297372
-0.1330197 -0.44257021 1.9579998 6638161
-0.39160001 -0.43635431 1.9579999 2821141
-0.38600576 -0.43448955 1.9579999 2361876
-0.1323981 -0.43448955 1.9579999 5585708
-0.1268038 -0.43262479 1.9579999 5391154
-0.38041139 -0.42889529 1.9579999 2035470
-0.37668189 -0.42516571 1.9579999 1642509
-0.13379668 -0.42563188 1.9580001 3942694
-0.12493905 -0.42330095 1.9579999 3679270
-0.1193448 -0.42143619 1.9579999 3283488
-0.14296506 -0.412734 1.9579998 2626580
-0.13426286 -0.41397715 1.9579999 2561304
-0.12431747 -0.41646352 1.9579998 2759197
-0.1342629 -0.4065181 1.9579999 1838606
-0.39129964 -0.46630919 1.969 4270884
-0.38479882 -0.46430892 1.9690001 4665647
-0.3756727 -0.46443391 1.969 5324858
-0.36754671 -0.46505901 1.969 5917252
-0.39129964 -0.45380762 1.969 2692119
-0.38442379 -0.4575581 1.969 3679010
-0.39567524 -0.44443145 1.969 2625814
-0.1312667 -0.4425562 1.969 5781828
-0.12564094 -0.4425562 1.969 5782337
-0.39379999 -0.4363054 1.969 2558996
-0.38629901 -0.43130481 1.969 2230543
-0.12439078 -0.43443021 1.969 4996140
-0.1162648 -0.43318003 1.969 4865828
-0.3825486 -0.42755431 1.969 1904396
-0.1200152 -0.42380387 1.969 3285277
-0.11532717 -0.42380384 1.969 3086366
-0.12470332 -0.41442764 1.969 2297879
-0.1312667 -0.40505141 1.969 1839895
-0.39977151 -0.4714286 1.98 4269075
-0.38279998 -0.4714286 1.98 5651521
-0.37337151 -0.4714286 1.98 6709331
-0.3696 -0.4714286 1.98 7038044
-0.39662862 -0.46451434 1.9799999 3481881
-0.39851436 -0.45508575 1.98 2297868
-0.40354291 -0.44314289 1.98 2166284
-0.39977151 -0.4488 1.98 2297876
-0.1206857 -0.44314289 1.98 5848627
-0.1150286 -0.44314292 1.98 6046514
-0.1093714 -0.4450286 1.98 6374967
-0.40354291 -0.43748581 1.98 2230543
-0.39600003 -0.43497145 1.98 2624532
-0.1131429 -0.4337143 1.98 4337955
-0.3922286 -0.42994291 1.98 2624528
-0.38393146 -0.42541718 1.9799999 1706251
-0.37714291 -0.42428577 1.98 2165260
-0.1131429 -0.42617145 1.98 2824220
-0.1093714 -0.42617151 1.98 2562593
-0.132 -0.41108581 1.98 2035985
-0.12445715 -0.4129715 1.98 2166289
-0.1169143 -0.4186286 1.98 2297363
-0.12697147 -0.40480003 1.98 2762271
-0.4059886 -0.47238863 1.992 4005400
-0.40472385 -0.46543244 1.992 2956306
-0.40693718 -0.4543657 1.992 1839887
-0.40978289 -0.44393143 1.992 1707269
-0.1214171 -0.44013709 1.992 5259560
-0.11129907 -0.44140187 1.992 5783597
-0.10434285 -0.44772571 1.992 5981496
-0.094857149 -0.44772571 1.992 5849398
-0.40219429 -0.4363429 1.992 3674393
-0.39840001 -0.43254861 1.992 3082519
-0.1100343 -0.43444574 1.992 3482148
-0.39081141 -0.42685714 1.992 854027
-0.11193145 -0.42306286 1.992 2233619
-0.1252114 -0.41357711 1.992 2428685
-0.1176229 -0.41737151 1.992 1969932
-0.1252114 -0.40978289 1.992 2626324
-0.41509795 -0.47461557 2.003 3218464
-0.42349139 -0.4635514 2.003 2365456
-0.41586101 -0.46545899 2.003 2299925
-0.41649684 -0.4552851 2.003 1970701
